-16.97 -27.84 5.72 1400 2
-16.98 -27.83 5.42 1400 2
-17.09 -28 5.73 1400 2
-17.12 -28 5.42 1400 2
-17.07 -27.98 5.14 1400 2
-17.08 -27.95 4.55 1400 2
-17.07 -28.15 5.74 1400 2
-17.19 -28.16 5.41 1400 2
-17.1 -28.13 5.14 1400 2
-17.2 -28.13 4.82 1400 2
-17.13 -28.11 4.54 1400 2
-17.02 -28.31 5.78 1400 2
-17.06 -28.3 5.48 1400 2
-16.92 -28.27 5.21 1400 2
-17.11 -28.28 4.87 1400 2
-16.96 -28.25 4.6 1400 2
-17 -28.23 4 1400 2
-16.85 -28.44 5.53 1400 2
-16.71 -28.41 5.26 1400 2
-16.92 -28.42 4.92 1400 2
-16.75 -28.39 4.65 1400 2
-16.81 -28.37 4.04 1400 2
-16.54 -28.55 5.34 1400 2
-16.72 -28.56 5 1400 2
-16.69 -28.52 4.1 1400 2
-16.56 -28.69 5.07 1400 2
-16.4 -28.66 4.79 1400 2
-16.62 -28.67 4.44 1400 2
-16.61 -28.66 4.14 1400 2
-16.36 -28.82 5.13 1400 2
-16.21 -28.79 4.85 1400 2
-16.43 -28.8 4.5 1400 2
-16.48 -28.79 4.19 1400 2
-16.12 -28.95 5.2 1400 2
-15.98 -28.92 4.91 1400 2
-16.2 -28.93 4.56 1400 2
-16.12 -28.91 4.26 1400 2
-16.16 -28.89 3.64 1400 2
-16.27 -28.88 3.32 1400 2
-15.79 -29.03 5.02 1400 2
-16 -29.05 4.66 1400 2
-16.04 -29.04 4.34 1400 2
-16.23 -29.05 4 1400 2
-15.92 -29 3.74 1400 2
-16.09 -29 3.4 1400 2
-15.63 -29.15 5.07 1400 2
-15.81 -29.16 4.72 1400 2
-15.78 -29.15 4.41 1400 2
-16.01 -29.16 4.05 1400 2
-15.75 -29.12 3.78 1400 2
-15.89 -29.12 3.45 1400 2
-15.73 -29.09 3.16 1400 2
-15.53 -29.3 5.14 1400 2
-15.64 -29.3 4.8 1400 2
-15.49 -29.27 4.51 1400 2
-15.7 -29.28 4.15 1400 2
-15.52 -29.24 3.87 1400 2
-15.73 -29.25 3.52 1400 2
-15.57 -29.22 3.23 1400 2
-15.69 -29.21 2.58 1400 2
-15.7 -29.16 1.33 1400 2
-15.95 -29.18 1 1400 2
-15.44 -29.43 4.87 1400 2
-15.3 -29.4 4.57 1400 2
-15.49 -29.41 4.22 1400 2
-15.35 -29.38 3.92 1400 2
-15.54 -29.39 3.57 1400 2
-15.39 -29.36 3.28 1400 2
-15.58 -29.37 2.93 1400 2
-15.43 -29.34 2.64 1400 2
-15.64 -29.35 2.3 1400 2
-15.46 -29.32 2 1400 2
-15.52 -29.3 1.37 1400 2
-15.74 -29.31 1.04 1400 2
-15.56 -29.28 0.74 1400 2
-15.75 -29.29 0.41 1400 2
-15.62 -29.26 0.11 1400 2
-15.27 -29.58 4.96 1400 2
-15.22 -29.56 4.64 1400 2
-15.3 -29.55 4.3 1400 2
-15.2 -29.53 4 1400 2
-15.34 -29.53 3.65 1400 2
-15.22 -29.5 3.35 1400 2
-15.38 -29.51 3.01 1400 2
-15.24 -29.48 2.71 1400 2
-15.43 -29.49 2.36 1400 2
-15.25 -29.45 2.07 1400 2
-15.46 -29.47 1.73 1400 2
-15.29 -29.43 1.43 1400 2
-15.5 -29.45 1.09 1400 2
-15.34 -29.41 0.79 1400 2
-15.56 -29.43 0.46 1400 2
-15.38 -29.39 0.16 1400 2
-15.57 -29.4 -0.17 1400 2
-15.39 -29.75 4.95 1400 2
-15.34 -29.73 4.64 1400 2
-15.34 -29.72 4.31 1400 2
-15.33 -29.71 3.99 1400 2
-15.33 -29.69 3.67 1400 2
-15.31 -29.68 3.35 1400 2
