-68.67 -73.31 -0.69
-80.52 -74.24 -7.23
-64.53 -69.6 -5.94
-66.82 -73.7 -6.09
-69.7 -73.56 -0.09
-81.45 -73.29 -7.18
-68.02 -59.21 -5.84
-80.4 -74.35 -7.22
-66.98 -60.13 -5.92
-66.97 -70.08 0.13
-68.95 -74.77 -2.74
-80.96 -73.83 -7.19
-77.57 -76.04 -7.43
-68.65 -73.2 -0.57
-68.94 -58.58 -5.78
-69.38 -58.33 -5.8
-72.3 -76.62 -7.07
-68.33 -71.91 0.35
-80.75 -74.04 -7.21
-68.54 -58.83 -5.81
-68.35 -58.96 -5.81
-73.89 -76.75 -7.24
-67.11 -59.99 -5.91
-81.37 -73.4 -7.16
-69.68 -73.45 0.03
-66.63 -71.63 -1.43
-80.87 -73.93 -7.2
-67 -70.33 0.05
-81.56 -73.18 -7.16
-69.9 -74.13 -0.61
-81.08 -73.72 -7.19
-68.73 -58.7 -5.8
-69.88 -74.02 -0.48
-69.36 -58.33 -5.81
-68.17 -59.08 -5.83
-69.59 -58.21 -5.81
-81.19 -73.61 -7.17
-69.14 -58.45 -5.8
-81.28 -73.51 -7.18
-81.47 -73.29 -7.19
-70.15 -76.03 -6.65
-68.54 -74.79 -3.49
-80.66 -74.14 -7.21
-67.23 -59.86 -5.9
-64.2 -66.11 -6.07
-68.53 -74.7 -3.23
-78.41 -75.69 -7.39
-68.48 -74.5 -2.81
-71.32 -76.43 -6.89
-69.34 -58.33 -5.81
-69.57 -58.21 -5.82
-80.99 -73.83 -7.19
-68.51 -58.83 -5.8
-81.39 -73.4 -7.17
-81.58 -73.18 -7.14
-68.9 -58.58 -5.79
-80.07 -74.65 -7.26
-79.94 -74.75 -7.27
-69.12 -58.45 -5.79
-69.93 -73.49 0.19
-80.44 -74.35 -7.23
-67.81 -59.34 -5.85
-68.7 -58.7 -5.8
-69.35 -74.65 -1.89
-68.86 -72.46 0.39
-81.49 -73.29 -7.19
-80.33 -74.45 -7.23
-69.73 -74.11 -0.68
-76.95 -76.29 -7.45
-69.32 -58.33 -5.8
-81.11 -73.72 -7.19
-80.79 -74.04 -7.21
-69.55 -75.78 -6.5
-69.1 -58.45 -5.78
-68.86 -72.35 0.49
-81.31 -73.51 -7.17
-69.56 -58.2 -5.82
-67.96 -59.21 -5.83
-79.7 -74.94 -7.29
-71.89 -76.58 -6.99
-80.9 -73.94 -7.2
-66.6 -71.75 -1.54
-68.31 -58.95 -5.81
-64.42 -69.33 -5.9
-81.01 -73.83 -7.2
-79.12 -75.32 -7.34
-68.3 -75.04 -6.32
-81.41 -73.4 -7.17
-67.35 -59.72 -5.87
-68.13 -74.92 -6.31
-64.3 -68.79 -5.93
-67.49 -59.59 -5.88
-81.22 -73.62 -7.17
-75.82 -76.61 -7.29
-68.12 -59.08 -5.83
-81.51 -73.29 -7.17
-70.37 -76.15 -6.66
-68.67 -58.7 -5.8
-64.18 -67.96 -5.96
-69.08 -58.45 -5.78
-80.69 -74.15 -7.22
-69.54 -58.2 -5.8
-80.58 -74.25 -7.23
-69.31 -58.32 -5.79
-66.8 -60.25 -5.94
-74.95 -76.74 -7.28
-81.61 -73.19 -7.09
-68.48 -58.82 -5.8
-68.87 -58.57 -5.79
-68.82 -72.8 0.08
-78.29 -75.78 -7.4
-81.33 -73.51 -7.18
-78.82 -75.51 -7.36
-75.48 -76.68 -7.27
-79.85 -74.85 -7.29
-69.77 -73.79 -0.21
-69.2 -73.28 -0.08
-81.43 -73.4 -7.17
-69.52 -58.2 -5.81
-67.62 -59.46 -5.86
-79.59 -75.04 -7.3
-69.09 -72.26 0.77
-81.24 -73.62 -7.17
-68.85 -58.57 -5.79
-69.51 -58.2 -5.8
-66.54 -60.52 -5.97
-81.04 -73.83 -7.2
-80.93 -73.94 -7.21
-80.24 -74.56 -7.25
-69.28 -58.32 -5.79
-81.14 -73.73 -7.18
-80.83 -74.04 -7.21
-81.53 -73.29 -7.19
-79.31 -75.23 -7.33
-66.73 -71.65 -1.18
-81.63 -73.19 -7.09
-80.12 -74.66 -7.27
-69.43 -73.1 0.3
-67.31 -74.28 -6.18
-81.35 -73.51 -7.18
-79.46 -75.14 -7.32
-69.49 -58.2 -5.8
-69.05 -58.44 -5.78
-69.26 -58.32 -5.79
-74.47 -76.8 -7.27
-80.38 -74.46 -7.24
-80.62 -74.25 -7.23
-81.26 -73.62 -7.18
-80.5 -74.36 -7.23
-68.63 -58.69 -5.8
-72.91 -76.77 -7.14
-78.7 -75.6 -7.38
-81.06 -73.83 -7.21
-69.15 -72.73 0.45
-68.43 -58.82 -5.81
-79.02 -75.42 -7.37
-78.14 -75.88 -7.41
-69.03 -58.44 -5.78
-67.74 -59.33 -5.85
-69.24 -58.32 -5.79
-68.25 -58.94 -5.81
-80.02 -74.76 -7.27
-81.55 -73.3 -7.18
-81.46 -73.41 -7.16
-81.37 -73.51 -7.18
-81.17 -73.73 -7.18
-69.16 -72.63 0.56
-73.32 -76.81 -7.21
-69.47 -58.19 -5.8
-80.97 -73.94 -7.2
-69.71 -73.68 -0.07
-69.35 -74.06 -0.83
-68.06 -59.07 -5.83
-67.89 -59.2 -5.84
-76.87 -76.39 -7.34
-68.81 -58.56 -5.79
-80.86 -74.05 -7.21
-72.44 -76.73 -7.07
-68.6 -58.69 -5.8
-81.47 -73.41 -7.17
-68.65 -73.32 -0.55
-69.46 -58.19 -5.79
-80.76 -74.15 -7.21
-81.38 -73.51 -7.2
-79.78 -74.95 -7.3
-69 -58.44 -5.78
-67.13 -59.85 -5.89
-81.29 -73.62 -7.17
-69.75 -74.22 -0.69
-81.57 -73.3 -7.18
-77.99 -75.97 -7.42
-69.22 -58.31 -5.8
-81.19 -73.73 -7.19
-80.3 -74.56 -7.25
-80.54 -74.36 -7.23
-68.4 -58.81 -5.8
-68.55 -74.81 -3.21
-67.41 -59.58 -5.87
-81.09 -73.84 -7.21
-68.78 -58.56 -5.8
-68.21 -58.94 -5.81
-81.3 -73.62 -7.19
-69.43 -58.19 -5.8
-81.49 -73.41 -7.18
-81.2 -73.73 -7.21
-69.2 -58.31 -5.79
-76.67 -76.47 -7.34
-68.46 -74.8 -3.34
-67.55 -59.45 -5.86
-70.34 -74.4 -0.48
-81 -73.94 -7.21
-69.42 -58.19 -5.8
-80.44 -74.46 -7.24
-81.59 -73.3 -7.18
-68.98 -58.43 -5.78
-69.19 -58.31 -5.78
-66.97 -59.98 -5.92
-68.73 -72.68 0.22
-69.81 -73.8 -0.09
-70.85 -76.39 -6.8
-66.59 -60.38 -5.95
-68.76 -58.56 -5.79
-74.01 -76.86 -7.24
-68.74 -72.57 0.33
-69.8 -73.59 0.14
-80.9 -74.05 -7.21
-78.6 -75.7 -7.39
-71.36 -76.54 -6.9
-68.94 -74.6 -2.07
-69.4 -58.19 -5.79
-66.36 -60.64 -5.96
-80.79 -74.16 -7.21
-81.41 -73.52 -7.19
-81.6 -73.3 -7.18
-80.68 -74.26 -7.23
-77.39 -76.23 -7.47
-79.95 -74.86 -7.29
-77.16 -76.31 -7.48
-66.67 -71.77 -1.27
-68.56 -58.68 -5.8
-81.51 -73.41 -7.18
-68.96 -58.43 -5.78
-69.48 -73.22 0.31
-69.53 -75.87 -6.53
-77.85 -76.06 -7.43
-81.32 -73.63 -7.19
-68.01 -59.06 -5.82
-79.27 -75.33 -7.34
-79.41 -75.24 -7.34
-67.49 -70.92 0.42
-69.35 -72.88 0.54
-80.21 -74.67 -7.26
-69.16 -58.31 -5.78
-67.23 -59.71 -5.88
-77.63 -76.15 -7.45
-67.09 -70.86 0.03
-66.82 -60.11 -5.93
-66.34 -70.23 -0.53
-68.49 -75.28 -6.34
-69.83 -74.23 -0.58
-81.52 -73.41 -7.19
-64.05 -67.23 -6.02
-81.13 -73.84 -7.2
-76.43 -76.56 -7.33
-72 -76.7 -6.99
-67.67 -59.32 -5.84
-79.71 -75.05 -7.3
-68.41 -74.7 -3.07
-81.43 -73.52 -7.19
-68.29 -75.15 -6.34
-81.62 -73.3 -7.18
-69.82 -74.03 -0.32
-64.18 -68.65 -5.92
-78.97 -75.52 -7.37
-68.57 -73.2 -0.41
-69.38 -58.18 -5.79
-69.57 -74.4 -1.02
-68.53 -58.68 -5.79
-81.03 -73.95 -7.21
-79.57 -75.15 -7.32
-68.81 -72.91 0.11
-68.93 -58.43 -5.78
-67.82 -59.19 -5.84
-68.73 -58.55 -5.78
-64.11 -65.81 -6.02
-69.2 -72.86 0.47
-76.99 -76.4 -7.4
-81.24 -73.74 -7.19
-68.96 -72.37 0.71
-68.16 -58.93 -5.81
-81.34 -73.63 -7.2
-69.37 -58.18 -5.79
-80.11 -74.77 -7.26
-68.34 -58.8 -5.81
-80.94 -74.05 -7.21
-69.14 -58.3 -5.79
-80.48 -74.47 -7.25
-69.19 -72.75 0.57
-68.96 -72.49 0.62
-80.83 -74.16 -7.21
-80.72 -74.26 -7.23
-80.6 -74.37 -7.23
-69.77 -73.91 -0.19
-81.54 -73.41 -7.21
-64.03 -67.08 -6.01
-68.83 -72.47 0.54
-81.45 -73.52 -7.19
-76.19 -76.64 -7.31
-80.37 -74.57 -7.25
-64.06 -67.8 -5.96
-70.1 -74.17 -0.27
-69.35 -58.18 -5.78
-81.64 -73.3 -7.19
-81.16 -73.84 -7.2
-69.68 -74.32 -0.78
-70.09 -74.27 -0.4
-68.34 -72.4 0.19
-66.71 -71.78 -1.15
-69.94 -74.25 -0.48
-69.51 -74.19 -0.74
-68.7 -58.55 -5.79
-67.3 -74.39 -6.19
-68.82 -72.35 0.64
-69.12 -58.3 -5.79
-81.26 -73.74 -7.19
-70.1 -74.37 -0.52
-81.06 -73.95 -7.2
-69.07 -72.39 0.8
-64.03 -66.52 -6.05
-69.33 -58.18 -5.78
-68.9 -58.42 -5.78
-81.56 -73.41 -7.2
-81.37 -73.63 -7.19
-69.1 -58.3 -5.79
-68.3 -58.8 -5.81
-70.21 -74.29 -0.32
-80.86 -74.16 -7.22
-75.07 -76.85 -7.29
-68.66 -73.33 -0.41
-67.95 -59.05 -5.83
-79.9 -74.96 -7.29
-68.11 -58.93 -5.81
-68.67 -58.55 -5.79
-66.65 -60.23 -5.94
-69.67 -75.99 -6.54
-81.66 -73.31 -7.17
-81.38 -73.63 -7.2
-69.19 -72.41 0.89
-68.88 -58.42 -5.78
-67.42 -74.52 -6.19
-68.48 -58.67 -5.8
-68.91 -72.6 0.53
-77.07 -76.4 -7.46
-69.08 -58.3 -5.78
-67.46 -59.44 -5.86
-67.31 -59.57 -5.87
-80.29 -74.67 -7.26
-81.48 -73.53 -7.18
-66.25 -73.32 -6.03
-81.29 -73.74 -7.2
-66.4 -60.5 -5.95
-69.31 -58.17 -5.78
-68.47 -58.67 -5.78
-80.98 -74.06 -7.21
-81.09 -73.95 -7.21
-81.19 -73.85 -7.19
-80.65 -74.37 -7.23
-80.17 -74.77 -7.27
-80.76 -74.27 -7.23
-78.53 -75.81 -7.39
-80.04 -74.87 -7.29
-80.42 -74.57 -7.25
-81.58 -73.42 -7.19
-68.86 -58.42 -5.77
-69.74 -74.12 -0.41
-73.01 -76.89 -7.15
-67.6 -59.31 -5.84
-79.2 -75.44 -7.36
-80.54 -74.47 -7.25
-69.87 -74.04 -0.21
-69.29 -58.17 -5.79
-81.69 -73.31 -7.12
-78.9 -75.62 -7.38
-80.89 -74.16 -7.23
-73.4 -76.92 -7.22
-68.87 -72.82 0.33
-81.31 -73.74 -7.2
-81.41 -73.63 -7.2
-81.5 -73.53 -7.19
-69.06 -58.29 -5.78
-79.38 -75.34 -7.35
-68.64 -58.54 -5.79
-81.21 -73.85 -7.2
-72.53 -76.85 -7.08
-67.74 -59.18 -5.84
-70.95 -76.51 -6.8
-69.27 -58.17 -5.78
-69 -73.38 -0.11
-63.98 -66.94 -5.99
-79.81 -75.06 -7.3
-74.63 -76.92 -7.27
-81.6 -73.42 -7.2
-67.9 -59.05 -5.82
-81.01 -74.06 -7.21
-69.87 -74.35 -0.58
-67.51 -70.93 0.55
-68.73 -72.8 0.25
-68.51 -75.38 -6.36
-67.13 -59.7 -5.88
-68.25 -58.79 -5.81
-64.03 -65.95 -6.06
-71.47 -76.66 -6.91
-66.99 -59.83 -5.9
-69.44 -74.29 -0.84
-69.25 -58.17 -5.78
-81.52 -73.53 -7.18
-68.48 -72.65 0.18
-81.61 -73.42 -7.21
-68.73 -72.69 0.36
-81.12 -73.96 -7.21
-80.69 -74.37 -7.24
-69.03 -58.29 -5.78
-78.41 -75.9 -7.4
-80.8 -74.27 -7.24
-69.06 -74.73 -1.94
-68.94 -74.71 -2.05
-68.82 -58.41 -5.78
-68.61 -58.54 -5.78
-79.69 -75.16 -7.32
-81.43 -73.64 -7.19
-68.05 -58.92 -5.81
-79.96 -74.97 -7.3
-79.56 -75.25 -7.33
-81.72 -73.32 -7.1
-81.24 -73.85 -7.2
-81.53 -73.53 -7.2
-76.95 -76.5 -7.36
-70.46 -76.37 -6.69
-69.01 -58.29 -5.78
-66.84 -59.96 -5.91
-68.41 -74.9 -3.32
-68.41 -58.66 -5.8
-81.34 -73.75 -7.19
-72.09 -76.81 -6.99
-81.04 -74.06 -7.21
-81.63 -73.42 -7.2
-68.8 -58.41 -5.78
-70.28 -74.5 -0.45
-80.35 -74.68 -7.26
-81.73 -73.32 -7.1
-69.46 -58.04 -5.81
-80.59 -74.48 -7.25
-80.93 -74.17 -7.23
-69.23 -58.16 -5.78
-74.06 -76.97 -7.25
-68.21 -58.79 -5.8
-78.8 -75.72 -7.39
-68.99 -58.29 -5.77
-67.39 -59.43 -5.85
-69.45 -58.04 -5.8
-81.15 -73.96 -7.21
-81.45 -73.64 -7.2
-80.48 -74.58 -7.26
-70.12 -74.48 -0.52
-66.7 -60.09 -5.92
-76.73 -76.58 -7.35
-76.52 -76.73 -6.2
-81.55 -73.53 -7.2
-80.24 -74.78 -7.28
-68.4 -74.81 -3.04
-69.21 -58.16 -5.79
-68.58 -58.53 -5.78
-81.36 -73.75 -7.2
-68.38 -58.66 -5.79
-68.77 -58.41 -5.79
-80.12 -74.88 -7.28
-69.43 -58.04 -5.81
-81.27 -73.85 -7.2
-81.65 -73.42 -7.22
-79.14 -75.54 -7.37
-76.53 -76.74 -6.04
-67.68 -59.17 -5.84
-78.28 -76 -7.41
-81.17 -73.96 -7.21
-66.02 -70.44 -0.92
-69.19 -58.16 -5.79
-69.65 -74.42 -0.77
-75.82 -76.81 -7.34
-81.47 -73.64 -7.21
-68.01 -58.91 -5.8
-68.46 -74.92 -3.18
-68.97 -58.28 -5.78
-69.41 -58.04 -5.79
-68.92 -72.83 0.45
-81.57 -73.53 -7.21
-69.18 -58.16 -5.78
-80.74 -74.38 -7.24
-76.56 -76.74 -6.12
-81.07 -74.07 -7.22
-69.23 -74.76 -1.7
-67.83 -59.04 -5.82
-81.38 -73.75 -7.2
-67.21 -59.56 -5.87
-77.91 -76.17 -7.45
-68.55 -58.53 -5.78
-80.97 -74.17 -7.23
-66.68 -71.91 -1.12
-68.31 -72.52 0.22
-80.86 -74.28 -7.22
-66.42 -60.36 -5.95
-67.5 -59.3 -5.84
-77.7 -76.26 -7.47
-69.16 -58.16 -5.77
-79.9 -75.07 -7.3
-68.77 -75.61 -6.38
-68.34 -58.66 -5.79
-80.41 -74.68 -7.26
-64.03 -68.5 -5.91
-79.33 -75.45 -7.36
-81.29 -73.86 -7.21
-70.62 -74.85 -0.65
-69.76 -74.14 -0.28
-68.74 -58.4 -5.78
-66.04 -73.19 -6.01
-68.94 -58.28 -5.77
-78.13 -76.09 -7.42
-80.65 -74.48 -7.24
-81.59 -73.53 -7.21
-68.16 -58.78 -5.8
-81.68 -73.43 -7.19
-67.75 -70.97 0.85
-67.64 -70.95 0.76
-69.39 -58.03 -5.8
-81.5 -73.64 -7.19
-81.4 -73.75 -7.2
-68.42 -72.54 0.32
-75.5 -76.89 -7.32
-80.54 -74.58 -7.26
-78.7 -75.82 -7.4
-64.09 -68.91 -5.83
-81.21 -73.96 -7.21
-69.05 -74.73 -1.8
-68.92 -58.28 -5.77
-70.37 -74.62 -0.46
-70.21 -74.6 -0.54
-69.37 -58.03 -5.8
-81.69 -73.43 -7.21
-77.32 -76.42 -7.48
-80.18 -74.88 -7.29
-81.51 -73.64 -7.21
-81.31 -73.86 -7.21
-80.31 -74.78 -7.28
-79.04 -75.64 -7.39
-80.89 -74.28 -7.23
-68.71 -58.4 -5.78
-70.16 -74.29 -0.16
-81.6 -73.54 -7.21
-77.55 -76.34 -7.47
-81.11 -74.07 -7.21
-79.79 -75.17 -7.32
-68.54 -75.49 -6.37
-69.36 -58.03 -5.8
-77.1 -76.51 -7.41
-79.66 -75.26 -7.34
-81 -74.18 -7.23
-68.76 -72.7 0.49
-68.13 -58.78 -5.79
-68.93 -75.73 -6.39
-67.38 -74.63 -6.19
-80.79 -74.38 -7.23
-81.42 -73.75 -7.21
-69.13 -58.15 -5.78
-67.95 -58.91 -5.8
-80.06 -74.98 -7.3
-71.05 -76.63 -6.81
-68.51 -58.52 -5.78
-73.01 -76.99 -7.17
-68.74 -72.92 0.28
-66.16 -60.62 -5.95
-69.12 -58.15 -5.77
-75.15 -76.96 -7.3
-73.45 -77.02 -7.23
-68.22 -74.69 -2.89
-69.34 -58.03 -5.79
-69.12 -72.97 0.54
-81.71 -73.43 -7.2
-71.56 -76.77 -6.91
-68.3 -58.65 -5.79
-79.53 -75.36 -7.34
-68.9 -58.27 -5.77
-72.62 -76.96 -7.09
-81.62 -73.54 -7.21
-76.62 -76.68 -7.32
-68.68 -58.4 -5.78
-67.02 -59.68 -5.87
-67.77 -59.03 -5.82
-64.56 -70.64 -5.88
-81.53 -73.65 -7.21
-70.38 -75.11 -1.15
-81.34 -73.86 -7.21
-80.92 -74.28 -7.24
-68.48 -58.52 -5.78
-67.6 -59.16 -5.84
-81.14 -74.07 -7.22
-68.88 -72.49 0.79
-69.37 -73 0.71
-81.24 -73.97 -7.21
-65.94 -70.55 -1.01
-69.09 -58.15 -5.78
-77.14 -76.51 -7.48
-67.59 -71.08 0.69
-69.33 -58.02 -5.77
-81.45 -73.75 -7.21
-81.73 -73.43 -7.2
-66.87 -59.81 -5.89
-80.7 -74.49 -7.25
-68.87 -58.27 -5.77
-81.64 -73.54 -7.21
-81.04 -74.18 -7.23
-67.43 -59.29 -5.84
-66.48 -60.21 -5.94
-69.31 -58.02 -5.78
-69.35 -73.22 0.51
-81.36 -73.86 -7.21
-70.46 -76.47 -6.7
-81.55 -73.65 -7.22
-78.6 -75.92 -7.41
-74.69 -77.03 -7.28
-81.74 -73.43 -7.21
-69.98 -74.57 -0.59
-76.4 -76.76 -7.31
-81.26 -73.97 -7.21
-69.52 -74.31 -0.59
-68.85 -58.27 -5.77
-69.94 -74.16 -0.08
-80.83 -74.39 -7.24
-68.65 -58.39 -5.79
-80.49 -74.69 -7.25
-69.02 -74.83 -1.91
-81.46 -73.76 -7.22
-80.95 -74.28 -7.24
-69.07 -58.14 -5.78
-79.99 -75.08 -7.3
-79.28 -75.55 -7.37
-68.41 -75.02 -3.3
-80.61 -74.59 -7.25
-68.44 -58.52 -5.78
-69.29 -58.02 -5.77
-76.44 -76.77 -7.22
-70.46 -74.74 -0.48
-67.27 -59.41 -5.86
-81.66 -73.54 -7.22
-68.07 -58.77 -5.8
-80.13 -74.98 -7.3
-69.06 -58.14 -5.77
-68.48 -75.03 -3.17
-72.12 -76.92 -7.01
-70.09 -74.39 -0.25
-81.76 -73.43 -7.19
-67.89 -58.9 -5.8
-76.5 -76.82 -6.55
-68.93 -73.49 -0.07
-76.5 -76.81 -6.71
-68.25 -58.64 -5.8
-66.71 -59.94 -5.91
-81.17 -74.08 -7.21
-81.57 -73.65 -7.22
-68.63 -58.39 -5.78
-78.97 -75.74 -7.39
-81.07 -74.18 -7.23
-67.78 -71.11 0.89
-67.59 -74.87 -6.19
-69.27 -58.02 -5.78
-68.25 -74.71 -2.75
-76.51 -76.83 -6.38
-68.96 -72.62 0.79
-76.51 -76.8 -6.87
-80.26 -74.89 -7.29
-66.55 -73.9 -6
-76.55 -76.82 -6.46
-69.04 -58.14 -5.76
-81.39 -73.86 -7.22
-69.26 -58.02 -5.77
-81.48 -73.76 -7.23
-68.83 -58.26 -5.76
-76.5 -76.79 -7.04
-81.29 -73.97 -7.21
-81.18 -74.08 -7.23
-66.58 -71.78 -0.97
-76.18 -76.85 -7.2
-69.18 -72.98 0.65
-70.36 -75.21 -1.25
-81.68 -73.54 -7.21
-69.18 -73.09 0.55
-80.75 -74.49 -7.25
-74.1 -77.08 -7.27
-63.86 -67.64 -5.95
-80.4 -74.79 -7.26
-79.46 -75.46 -7.36
-67.43 -74.75 -6.19
-80.64 -74.59 -7.26
-69.76 -74.04 -0.02
-70.45 -75.13 -1.04
-70.25 -74.71 -0.54
-81.59 -73.65 -7.22
-76.55 -76.82 -6.62
-76.54 -76.84 -6.22
-64.07 -69.17 -5.89
-68.6 -58.39 -5.77
-80.87 -74.39 -7.24
-79.89 -75.18 -7.32
-68.78 -72.93 0.4
-76.56 -76.81 -6.79
-68.36 -74.92 -3.02
-67.09 -59.54 -5.87
-78.48 -76.02 -7.42
-69.01 -58.14 -5.77
-63.84 -67.49 -5.94
-81.4 -73.87 -7.23
-63.83 -66.78 -5.99
-68.8 -58.26 -5.77
-68.4 -58.51 -5.78
-81.1 -74.18 -7.24
-81.31 -73.97 -7.22
-67.53 -59.15 -5.83
-80.53 -74.7 -7.26
-76.57 -76.84 -6.3
-81.79 -73.44 -7.17
-76.55 -76.85 -6.06
-69.24 -58.01 -5.76
-81.7 -73.54 -7.22
-67.64 -71.09 0.81
-68.2 -58.64 -5.8
-79.63 -75.37 -7.35
-68.03 -58.76 -5.8
-81.51 -73.76 -7.22
-81.61 -73.65 -7.21
-69.29 -73.11 0.64
-81.21 -74.08 -7.23
-76.57 -76.85 -5.98
-68.95 -75.83 -6.41
-67.68 -59.02 -5.83
-77.07 -76.61 -7.37
-69.55 -73.36 0.59
-65.95 -70.56 -0.88
-69.22 -58.01 -5.77
-81.71 -73.54 -7.23
-64.02 -69.03 -5.87
-71.1 -76.73 -6.81
-76.59 -76.85 -6.14
-63.82 -67.35 -5.92
-69.73 -74.45 -0.52
-68.77 -58.26 -5.77
-81.01 -74.29 -7.23
-70.61 -74.96 -0.62
-68.99 -58.13 -5.78
-68.57 -58.38 -5.78
-67.35 -59.28 -5.83
-79.79 -75.28 -7.33
-70.45 -75.23 -1.15
-79.21 -75.65 -7.38
-67.83 -58.89 -5.8
-70.55 -74.85 -0.49
-81.53 -73.76 -7.22
-81.43 -73.87 -7.22
-69.15 -72.76 0.87
-69.14 -72.87 0.77
-69.2 -58.01 -5.77
-80.79 -74.5 -7.25
-68.36 -58.51 -5.78
-68.89 -74.33 -1.09
-66.17 -60.47 -5.96
-68.47 -75.13 -3.3
-68.53 -72.57 0.56
-66.52 -60.07 -5.92
-71.65 -76.88 -6.92
-67.19 -59.41 -5.85
-81.82 -73.45 -7.12
-80.33 -74.89 -7.3
-70.6 -76.59 -6.7
-70.15 -75 -0.98
-68.97 -58.13 -5.77
-81.63 -73.66 -7.21
-68.22 -74.8 -2.87
-80.45 -74.8 -7.27
-68.35 -58.51 -5.76
-81.34 -73.98 -7.22
-78.9 -75.84 -7.39
-68.17 -58.63 -5.79
-80.21 -74.99 -7.3
-73.05 -77.09 -7.18
-80.08 -75.09 -7.3
-69.18 -58.01 -5.77
-80.92 -74.4 -7.23
-75.94 -76.93 -7.34
-81.73 -73.55 -7.23
-69.88 -76.32 -6.58
-67.98 -58.76 -5.79
-81.55 -73.76 -7.22
-81.14 -74.19 -7.23
-72.65 -77.06 -7.1
-68.95 -58.13 -5.76
-80.7 -74.6 -7.26
-69.24 -73.54 0.23
-81.04 -74.29 -7.24
-73.47 -77.12 -7.25
-66.26 -60.34 -5.95
-68.53 -58.38 -5.78
-78.39 -76.11 -7.42
-68.74 -58.25 -5.77
-70.38 -74.93 -0.68
-81.84 -73.45 -7.12
-81.26 -74.08 -7.22
-81.46 -73.87 -7.22
-66.56 -74 -6.03
-81.65 -73.66 -7.22
-81.56 -73.76 -7.24
-68.73 -58.25 -5.76
-75.63 -77 -7.32
-78.21 -76.2 -7.44
-70.59 -75.06 -0.72
-69.16 -58 -5.76
-77.38 -76.53 -7.5
-76.93 -76.7 -7.35
-65.89 -70.68 -0.98
-68.98 -72.74 0.81
-81.37 -73.98 -7.22
-79.42 -75.56 -7.37
-69.86 -74.77 -0.8
-75.2 -77.07 -7.31
-76.67 -76.78 -7.34
-81.76 -73.55 -7.21
-66.88 -59.66 -5.88
-67.62 -74.99 -6.2
-80.84 -74.5 -7.25
-81.48 -73.87 -7.21
-67.2 -70.78 0.64
-63.86 -68.35 -5.91
-67.78 -58.88 -5.8
-68.51 -58.37 -5.77
-68.33 -74.92 -2.87
-69.14 -58 -5.77
-81.67 -73.66 -7.22
-77.18 -76.62 -7.42
-68.12 -58.63 -5.79
-80.62 -74.7 -7.25
-79.99 -75.19 -7.32
-67.61 -59.01 -5.83
-68.7 -58.25 -5.76
-68.92 -58.12 -5.77
-80.96 -74.4 -7.23
-78.04 -76.29 -7.45
-81.18 -74.19 -7.22
-67.76 -75.11 -6.21
-79.58 -75.47 -7.37
-81.77 -73.55 -7.22
-69.13 -58 -5.76
-68.48 -75.14 -3.16
-79.13 -75.75 -7.39
-81.39 -73.98 -7.22
-70.02 -74.89 -0.83
-72.16 -77.02 -7.02
-74.74 -77.13 -7.29
-67.44 -59.14 -5.84
-66.73 -59.79 -5.9
-81.29 -74.09 -7.22
-69.87 -74.87 -0.91
-68.29 -58.5 -5.78
-77.87 -76.37 -7.46
-80.75 -74.6 -7.26
-68.9 -58.12 -5.77
-79.88 -75.28 -7.34
-81.08 -74.3 -7.23
-70.44 -75.14 -0.9
-67.93 -58.75 -5.79
-81.5 -73.87 -7.23
-69.48 -74.42 -0.57
-81.69 -73.66 -7.22
-70.65 -74.97 -0.5
-68.48 -58.37 -5.77
-78.81 -75.94 -7.4
-69.1 -58 -5.77
-69.46 -73.9 0.07
-81.2 -74.19 -7.24
-66.33 -60.2 -5.93
-64.23 -70.1 -5.87
-81.6 -73.77 -7.22
-66.98 -59.53 -5.87
-81.79 -73.55 -7.23
-70.21 -74.61 -0.27
-77.67 -76.46 -7.47
-68.88 -58.12 -5.77
-69.93 -74.68 -0.56
-80.99 -74.4 -7.24
-70.47 -75.24 -1.02
-80.41 -74.9 -7.29
-81.31 -74.09 -7.22
-66.57 -59.93 -5.91
-68.67 -58.24 -5.76
-69.33 -57.87 -5.79
-68.97 -75.93 -6.43
-67.88 -75.23 -6.22
-80.53 -74.81 -7.27
-81.42 -73.98 -7.22
-66.73 -74.24 -6.05
-63.83 -65.64 -6.02
-80.65 -74.71 -7.27
-81.61 -73.77 -7.24
-74.16 -77.18 -7.28
-77.25 -76.62 -7.48
-69.32 -57.87 -5.78
-81.71 -73.66 -7.23
-79.77 -75.38 -7.34
-68.08 -58.62 -5.79
-64.26 -70.23 -5.88
-68.86 -58.12 -5.76
-81.11 -74.3 -7.23
-67.26 -59.26 -5.83
-80.17 -75.1 -7.3
-80.3 -75 -7.3
-70.01 -76.44 -6.59
-81.81 -73.55 -7.22
-76.5 -76.87 -7.32
-68.26 -58.49 -5.77
-81.52 -73.88 -7.24
-80.89 -74.51 -7.25
-69.08 -57.99 -5.77
-68.76 -73.91 -0.5
-69.3 -57.87 -5.79
-81.33 -74.09 -7.23
-64.34 -70.49 -5.88
-69.28 -73.33 0.57
-68.64 -58.24 -5.77
-68.77 -72.94 0.55
-69.9 -75.07 -1.14
-81.63 -73.77 -7.24
-81.73 -73.66 -7.22
-68.63 -73.9 -0.6
-68.44 -58.36 -5.77
-68.33 -75.03 -3
-67.06 -70.64 0.65
-69.06 -57.99 -5.77
-71.15 -76.84 -6.83
-81.23 -74.2 -7.24
-69.28 -57.87 -5.78
-80.07 -75.19 -7.33
-64.48 -70.88 -5.9
-67.71 -58.87 -5.8
-69.41 -73.46 0.55
-68.84 -58.11 -5.76
-63.79 -68.21 -5.89
-81.54 -73.88 -7.24
-81.44 -73.99 -7.23
-80.8 -74.61 -7.26
-69.05 -57.99 -5.76
-63.76 -66.06 -6
-67.54 -59 -5.83
-67.38 -59.13 -5.83
-70.65 -76.7 -6.71
-70.47 -75.34 -1.12
-68.42 -58.36 -5.76
-68.61 -58.24 -5.76
-81.83 -73.56 -7.23
-68.22 -58.49 -5.78
-79.37 -75.67 -7.38
-81.65 -73.77 -7.25
-81.15 -74.3 -7.24
-70.6 -75.07 -0.59
-67.07 -59.39 -5.86
-69.7 -74.65 -0.62
-68.04 -58.61 -5.79
-71.66 -76.98 -6.94
-67.86 -58.74 -5.8
-80.93 -74.51 -7.25
-78.72 -76.04 -7.41
-81.04 -74.41 -7.24
-69.39 -73.57 0.45
-68.81 -58.11 -5.76
-80.59 -74.81 -7.27
-81.75 -73.67 -7.22
-69.26 -57.86 -5.78
-80.71 -74.71 -7.26
-81.26 -74.2 -7.24
-81.85 -73.56 -7.22
-73.27 -77.21 -7.17
-68.59 -74 -0.72
-81.47 -73.99 -7.22
-69.25 -57.86 -5.78
-81.57 -73.88 -7.23
-79.07 -75.86 -7.4
-69.96 -74.49 -0.19
-70.28 -75.32 -1.19
-81.67 -73.77 -7.24
-69.02 -57.98 -5.77
-81.37 -74.1 -7.22
-80.48 -74.91 -7.29
-68.79 -58.11 -5.76
-68.59 -58.23 -5.76
-72.74 -77.17 -7.11
-69.99 -74.79 -0.57
-69.37 -73.68 0.34
-81.17 -74.3 -7.25
-69.52 -73.48 0.65
-68.38 -58.36 -5.77
-69.84 -74.77 -0.65
-80.84 -74.61 -7.27
-81.58 -73.88 -7.24
-69.23 -57.86 -5.77
-66.53 -74.11 -6.05
-79.99 -75.29 -7.33
-66.38 -60.05 -5.92
-81.77 -73.67 -7.23
-65.92 -60.59 -5.96
-73.58 -77.23 -7.25
-79.56 -75.58 -7.37
-69 -57.98 -5.77
-69.22 -57.86 -5.76
-72.33 -77.13 -7.02
-68.77 -58.11 -5.75
-80.37 -75.01 -7.31
-67.65 -58.87 -5.8
-67.82 -58.74 -5.79
-81.49 -73.99 -7.23
-66.01 -73.53 -5.94
-80.26 -75.1 -7.3
-69.37 -74.61 -0.79
-68.18 -58.48 -5.77
-76.34 -76.96 -7.37
-79.86 -75.39 -7.35
-67.99 -58.61 -5.79
-77.19 -76.72 -7.38
-80.97 -74.51 -7.26
-81.08 -74.41 -7.24
-79.73 -75.48 -7.36
-64.11 -69.96 -5.86
-68.98 -57.98 -5.77
-81.88 -73.57 -7.17
-69.2 -57.86 -5.76
-63.68 -66.63 -5.98
-81.69 -73.78 -7.24
-81.3 -74.2 -7.23
-68.68 -74.22 -0.88
-81.6 -73.88 -7.25
-68.09 -74.8 -2.7
-68.55 -58.23 -5.77
-81.4 -74.1 -7.23
-81.79 -73.67 -7.23
-69.37 -74.71 -0.92
-75.23 -77.17 -7.33
-78.62 -76.13 -7.42
-69.48 -74.53 -0.56
-70.47 -75.25 -0.88
-67.17 -59.25 -5.83
-66.74 -59.65 -5.88
-70.1 -76.55 -6.59
-70.25 -74.73 -0.26
-81.51 -73.99 -7.23
-65.69 -70.65 -1.06
-78.44 -76.22 -7.44
-75.68 -77.11 -7.33
-68.96 -57.98 -5.77
-76.05 -77.04 -7.35
-79.29 -75.77 -7.39
-69.18 -57.86 -5.76
-67.47 -58.99 -5.83
-66.16 -72.4 -1.97
-76.68 -76.89 -7.37
-66.17 -73.75 -5.99
-66.6 -59.78 -5.89
-80.76 -74.72 -7.27
-68.34 -58.35 -5.77
-81.9 -73.57 -7.16
-69.32 -74.51 -0.65
-68.74 -58.1 -5.76
-69.46 -73.58 0.56
-63.95 -69.43 -5.81
-81.71 -73.78 -7.24
-81.32 -74.2 -7.24
-81.42 -74.1 -7.23
-81.21 -74.31 -7.25
-80.65 -74.82 -7.27
-81.81 -73.67 -7.23
-81.11 -74.41 -7.24
-69.18 -74.49 -0.74
-77.43 -76.64 -7.52
-80.17 -75.2 -7.32
-65.99 -60.45 -5.95
-68.53 -58.22 -5.76
-68.13 -58.48 -5.78
-80.89 -74.62 -7.27
-68.72 -58.1 -5.75
-81.82 -73.67 -7.23
-68.64 -74.41 -1.15
-74.77 -77.24 -7.31
-78.99 -75.96 -7.41
-67.16 -70.78 0.79
-78.29 -76.31 -7.45
-68.94 -57.97 -5.77
-69.16 -57.85 -5.76
-70.52 -75.16 -0.66
-81.54 -73.99 -7.23
-66.85 -59.51 -5.87
-81.63 -73.89 -7.25
-68.31 -58.35 -5.77
-77.69 -76.56 -7.5
-67.28 -59.12 -5.84
-81.73 -73.78 -7.25
-80.55 -74.92 -7.29
-68.14 -74.82 -2.56
-81.93 -73.57 -7.13
-67.94 -58.6 -5.79
-69.97 -74.99 -0.78
-66.98 -59.38 -5.85
-67.76 -58.73 -5.79
-68.42 -75.25 -3.14
-81.02 -74.52 -7.25
-68.5 -58.22 -5.76
-69.14 -57.85 -5.76
-68.92 -57.97 -5.77
-70.72 -75.28 -0.7
-81.24 -74.31 -7.25
-81.45 -74.1 -7.23
-77.27 -76.73 -7.44
-80.45 -75.01 -7.3
-68.69 -58.1 -5.76
-70.67 -75.18 -0.57
-81.84 -73.67 -7.24
-69.13 -57.85 -5.76
-81.94 -73.57 -7.14
-69.43 -74.63 -0.67
-70.72 -76.81 -6.72
-81.65 -73.89 -7.24
-81.35 -74.21 -7.24
-71.2 -76.95 -6.84
-70.54 -75.26 -0.77
-81.75 -73.78 -7.24
-79.51 -75.68 -7.38
-77.06 -76.82 -7.35
-71.78 -77.09 -6.94
-67.57 -58.86 -5.81
-68.24 -75.03 -2.84
-66.07 -60.31 -5.94
-81.56 -74 -7.23
-80.34 -75.11 -7.31
-80.82 -74.72 -7.26
-68.89 -57.97 -5.77
-81.15 -74.42 -7.24
-69.42 -74.72 -0.79
-68.47 -58.22 -5.76
-68.09 -58.47 -5.78
-80.09 -75.3 -7.33
-81.47 -74.1 -7.24
-67.81 -75.33 -6.23
-68.57 -74.1 -0.72
-80.71 -74.82 -7.27
-78.16 -76.4 -7.46
-81.86 -73.67 -7.24
-68.88 -57.97 -5.76
-78.89 -76.05 -7.42
-74.37 -77.3 -7.27
-80.94 -74.62 -7.27
-70.29 -75.13 -0.71
-68.67 -58.09 -5.75
-81.67 -73.89 -7.25
-68.27 -58.34 -5.77
-64.31 -70.74 -5.9
-67.95 -75.44 -6.24
-81.77 -73.78 -7.25
-68.12 -75.56 -6.26
-79.68 -75.59 -7.37
-67.89 -58.6 -5.79
-81.06 -74.52 -7.25
-69.1 -57.84 -5.77
-64 -69.82 -5.86
-81.38 -74.21 -7.24
-81.58 -74 -7.24
-72.86 -77.27 -7.11
-68.14 -74.92 -2.69
-68.86 -57.97 -5.75
-67.2 -70.91 0.82
-67.39 -58.98 -5.83
-69.09 -57.84 -5.76
-68.65 -58.09 -5.75
-69.67 -74.16 0.17
-79.24 -75.87 -7.4
-79.98 -75.4 -7.34
-81.28 -74.32 -7.24
-77.35 -76.73 -7.5
-67.71 -58.72 -5.79
-68.69 -74.02 -0.46
-81.69 -73.89 -7.25
-81.18 -74.42 -7.25
-69 -72.87 0.98
-66.4 -59.9 -5.91
-80.62 -74.92 -7.29
-81.79 -73.78 -7.25
-68.05 -58.47 -5.77
-68.24 -58.34 -5.76
-68.44 -58.21 -5.76
-80.25 -75.21 -7.33
-69.32 -76.28 -6.47
-73.27 -77.31 -7.19
-81.88 -73.68 -7.24
-78.01 -76.49 -7.46
-69.07 -57.84 -5.75
-66.15 -60.17 -5.93
-81.6 -74 -7.24
-81.5 -74.11 -7.23
-79.85 -75.5 -7.36
-68.2 -74.93 -2.56
-70.52 -75.07 -0.42
-68.95 -74.66 -1.08
-67.21 -59.11 -5.83
-68.84 -57.96 -5.76
-81.09 -74.52 -7.26
-63.94 -69.68 -5.85
-67.06 -59.24 -5.83
-80.86 -74.73 -7.27
-81.3 -74.32 -7.25
-70.27 -74.84 -0.25
-72.35 -77.23 -7.04
-69.05 -57.84 -5.76
-70.26 -75.43 -1.16
-68.91 -74.36 -0.67
-81.71 -73.89 -7.26
-69.38 -74.82 -0.9
-80.52 -75.02 -7.3
-81.9 -73.68 -7.23
-81.42 -74.21 -7.23
-70.34 -75.34 -0.94
-68.21 -58.34 -5.76
-67.51 -58.85 -5.8
-68.82 -57.96 -5.75
-80.76 -74.83 -7.27
-81.62 -74 -7.25
-63.63 -68.05 -5.88
-81.81 -73.79 -7.25
-69.48 -74.03 0.23
-68.61 -58.08 -5.76
-68.4 -58.21 -5.77
-80.99 -74.63 -7.27
-68.77 -74.44 -0.9
-67.84 -58.59 -5.78
-81.22 -74.42 -7.24
-81.91 -73.68 -7.24
-70.12 -76.66 -6.6
-80.41 -75.12 -7.31
-81.53 -74.11 -7.22
-63.89 -69.55 -5.83
-73.75 -77.35 -7.25
-68.21 -75.67 -6.27
-68.64 -74.42 -1
-68.6 -58.08 -5.74
-66.62 -59.63 -5.88
-69.48 -73.48 0.81
-81.73 -73.89 -7.26
-68.8 -57.96 -5.74
-69.03 -57.83 -5.76
-68.01 -58.46 -5.77
-68.38 -58.21 -5.76
-79.47 -75.78 -7.38
-70.05 -74.1 0.55
-69.88 -74.29 0.23
-71.35 -77.06 -6.84
-81.64 -74 -7.25
-81.83 -73.79 -7.25
-81.34 -74.32 -7.24
-69.6 -73.94 0.44
-66.83 -74.59 -6.05
-81.44 -74.22 -7.24
-68.18 -75.12 -2.96
-69.01 -57.83 -5.75
-81.55 -74.11 -7.23
-78.83 -76.15 -7.42
-77.24 -76.83 -7.4
-75.27 -77.28 -7.34
-68.57 -58.08 -5.75
-70.45 -75.36 -0.84
-81.02 -74.63 -7.28
-67.32 -58.97 -5.82
-80.19 -75.31 -7.33
-69.06 -72.99 0.99
-69 -57.83 -5.75
-69.3 -73.79 0.4
-69.45 -73.59 0.71
-71.94 -77.2 -6.94
-80.68 -74.93 -7.29
-81.94 -73.68 -7.23
-68.78 -57.95 -5.75
-68.74 -74.54 -1.03
-80.92 -74.73 -7.26
-79.64 -75.69 -7.38
-81.14 -74.53 -7.25
-81.75 -73.9 -7.26
-66.73 -59.49 -5.87
-66.21 -60.03 -5.92
-81.85 -73.79 -7.25
-66.64 -74.39 -5.28
-80.81 -74.83 -7.28
-76.11 -77.15 -7.36
-81.25 -74.43 -7.25
-68.16 -58.33 -5.76
-68.55 -58.08 -5.74
-67.63 -58.71 -5.8
-68.98 -57.83 -5.75
-79.19 -75.97 -7.4
-81.46 -74.22 -7.26
-75.76 -77.22 -7.35
-68.25 -75.14 -2.83
-81.66 -74.01 -7.25
-66.67 -74.46 -6.06
-66.68 -74.47 -5.9
-80.07 -75.41 -7.35
-69.28 -73.68 0.52
-68.35 -58.2 -5.76
-74.89 -77.34 -7.31
-78.69 -76.24 -7.44
-66.69 -74.48 -5.74
-81.37 -74.32 -7.25
-70.7 -75 -0.12
-70.2 -75.52 -1.26
-70.72 -76.91 -6.73
-67.79 -58.58 -5.78
-66.85 -59.36 -5.86
-81.58 -74.11 -7.23
-68.75 -57.95 -5.75
-80.34 -75.22 -7.33
-69 -73.64 0.36
-69.2 -57.7 -5.78
-81.87 -73.79 -7.24
-77.04 -76.92 -7.39
-66.44 -59.76 -5.89
-79.81 -75.6 -7.37
-81.96 -73.69 -7.22
-76.78 -77 -7.38
-69.4 -73.8 0.5
-76.49 -77.08 -7.36
-79.95 -75.51 -7.36
-66.67 -74.41 -4.98
-69.19 -57.7 -5.77
-81.17 -74.53 -7.26
-81.78 -73.9 -7.25
-66.71 -74.5 -5.43
-80.6 -75.03 -7.3
-68.73 -57.95 -5.75
-67.95 -58.45 -5.78
-81.97 -73.69 -7.22
-80.48 -75.13 -7.31
-80.96 -74.73 -7.27
-66.97 -59.23 -5.83
-68.95 -57.82 -5.76
-66.68 -74.49 -5.59
-78.55 -76.33 -7.45
-81.69 -74.01 -7.26
-68.31 -58.2 -5.76
-81.79 -73.9 -7.26
-81.89 -73.79 -7.24
-81.29 -74.43 -7.25
-81.5 -74.22 -7.24
-67.42 -58.84 -5.81
-69.36 -76.39 -6.48
-68.94 -57.82 -5.75
-69.97 -74.2 0.47
-68.51 -58.07 -5.75
-68.71 -57.95 -5.74
-81.08 -74.63 -7.27
-69.16 -57.7 -5.79
-81.6 -74.12 -7.23
-74.38 -77.4 -7.29
-63.66 -68.74 -5.83
-68.12 -58.32 -5.76
-79.4 -75.88 -7.4
-80.74 -74.93 -7.29
-67.58 -58.71 -5.79
-70.49 -74.98 -0.17
-63.55 -67.9 -5.87
-66.68 -74.42 -4.82
-69.66 -73.95 0.55
-77.33 -76.84 -7.46
-81.4 -74.33 -7.25
-69.15 -57.7 -5.76
-63.53 -66.33 -5.95
-63.51 -67.18 -5.93
-69.68 -74.87 -0.57
-65.86 -73.62 -5.97
-72.87 -77.37 -7.14
-70.51 -75.37 -0.72
-81.2 -74.53 -7.27
-80.86 -74.84 -7.28
-81.61 -74.12 -7.25
-64.05 -70.34 -5.89
-81.71 -74.01 -7.26
-66.73 -74.52 -5.12
-79.09 -76.07 -7.42
-73.26 -77.4 -7.22
-67.1 -59.09 -5.83
-66.7 -74.51 -5.28
-81.81 -73.9 -7.27
-82 -73.69 -7.21
-68.91 -57.82 -5.76
-67.91 -58.45 -5.77
-67.73 -58.58 -5.78
-69.13 -57.7 -5.77
-68.48 -58.07 -5.75
-68.29 -58.19 -5.75
-68.52 -74.11 -0.55
-78.41 -76.42 -7.46
-70.59 -75.28 -0.51
-68.09 -58.32 -5.76
-70.21 -75.43 -1.01
-80.27 -75.32 -7.34
-81.32 -74.43 -7.25
-69.12 -57.7 -5.75
-81.53 -74.22 -7.24
-81.91 -73.8 -7.25
-67.24 -58.96 -5.82
-81.42 -74.33 -7.26
-68.97 -73.1 0.92
-77.83 -76.67 -7.5
-68.84 -74.85 -1.29
-68.89 -57.82 -5.76
-68.68 -57.94 -5.75
-81.73 -74.01 -7.26
-72.37 -77.33 -7.06
-70.64 -75.09 -0.19
-70.17 -76.77 -6.61
-68.46 -58.07 -5.74
-78.04 -76.59 -7.49
-66.73 -74.59 -5.75
-69.19 -73.89 0.32
-66.68 -74.43 -4.67
-70.26 -74.95 -0.22
-71.42 -77.16 -6.85
-81.64 -74.12 -7.25
-69.62 -74.06 0.45
-81.93 -73.8 -7.23
-69.6 -74.37 0.08
-69.33 -73.91 0.41
-81.01 -74.74 -7.27
-66.76 -74.54 -4.82
-68.66 -57.94 -5.74
-70.06 -74.73 -0.05
-82.03 -73.7 -7.15
-73.72 -77.44 -7.28
-77.63 -76.76 -7.51
-80.55 -75.13 -7.31
-80.42 -75.23 -7.33
-70.39 -74.87 -0.02
-79.6 -75.8 -7.39
-69.1 -57.69 -5.77
-66.25 -59.88 -5.91
-70.49 -75.17 -0.37
-81.13 -74.64 -7.26
-79.76 -75.7 -7.39
-77.42 -76.84 -7.51
-78.27 -76.51 -7.46
-81.35 -74.43 -7.26
-80.67 -75.04 -7.3
-69.51 -76.51 -6.48
-68.87 -57.81 -5.75
-68.24 -58.19 -5.76
-80.91 -74.84 -7.28
-70.04 -74.32 0.45
-67.36 -58.83 -5.8
-68.64 -57.94 -5.74
-81.85 -73.91 -7.23
-70.05 -74.22 0.57
-80.05 -75.51 -7.37
-67.87 -58.44 -5.77
-81.76 -74.01 -7.25
-68.16 -75.76 -6.29
-70.43 -75.07 -0.25
-81.66 -74.12 -7.25
-70.84 -77.02 -6.74
-81.56 -74.23 -7.23
-81.46 -74.33 -7.25
-68.86 -57.81 -5.74
-69.08 -57.69 -5.75
-80.8 -74.94 -7.29
-66.76 -59.35 -5.85
-68.05 -58.31 -5.76
-81.95 -73.8 -7.24
-81.25 -74.54 -7.26
-68.43 -58.06 -5.75
-66.7 -74.45 -4.51
-82.05 -73.7 -7.15
-69.07 -57.69 -5.76
-66.42 -74.32 -6.06
-69.45 -73.6 0.84
-67.51 -58.7 -5.79
-67.68 -58.57 -5.78
-63.52 -65.89 -5.99
-70.18 -74.23 0.65
-66.73 -74.61 -5.43
-81.86 -73.91 -7.25
-81.04 -74.74 -7.28
-79.32 -75.99 -7.41
-69.73 -74.07 0.55
-80.2 -75.42 -7.34
-67.03 -59.09 -5.82
-69.3 -73.69 0.66
-79.01 -76.17 -7.42
-68.32 -75.88 -6.3
-69.05 -57.69 -5.75
-68.83 -57.81 -5.75
-81.97 -73.8 -7.22
-81.48 -74.33 -7.26
-81.37 -74.44 -7.27
-79.94 -75.61 -7.37
-69.42 -73.81 0.63
-81.27 -74.54 -7.27
-66.6 -59.48 -5.87
-66.47 -59.61 -5.88
-66.68 -74.53 -4.97
-68.4 -58.06 -5.75
-71.92 -77.3 -6.97
-69.83 -74.29 0.39
-81.17 -74.64 -7.26
-68.21 -58.18 -5.76
-81.88 -73.91 -7.24
-68.61 -57.93 -5.74
-81.69 -74.12 -7.25
-81.59 -74.23 -7.23
-67.83 -58.44 -5.76
-65.97 -60.15 -5.92
-68.81 -57.81 -5.75
-68.23 -75.25 -2.82
-70.14 -74.44 0.42
-67.17 -58.95 -5.82
-66.65 -74.58 -5.9
-70.15 -75.53 -1.11
-81.79 -74.02 -7.24
-68.42 -74.31 -0.81
-75.77 -77.32 -7.37
-66.87 -59.21 -5.83
-81.79 -74.02 -7.26
-66.76 -74.69 -6.05
-68.8 -57.81 -5.74
-68 -58.31 -5.76
-81.6 -74.23 -7.25
-68.59 -57.93 -5.74
-80.36 -75.33 -7.33
-81.99 -73.8 -7.24
-69.03 -57.68 -5.76
-80.73 -75.04 -7.3
-80.85 -74.94 -7.29
-65.73 -60.42 -5.96
-81.9 -73.91 -7.24
-81.71 -74.12 -7.25
-69.72 -74.98 -0.55
-80.5 -75.23 -7.32
-77.31 -76.94 -7.41
-66.76 -74.56 -4.51
-80.62 -75.14 -7.31
-68.57 -57.93 -5.73
-69.01 -57.68 -5.75
-78.9 -76.26 -7.44
-81.19 -74.65 -7.27
-68.17 -58.18 -5.76
-80.97 -74.85 -7.28
-81.41 -74.44 -7.26
-70.5 -75.38 -0.58
-67.63 -58.56 -5.78
-68.37 -58.05 -5.75
-67.46 -58.69 -5.78
-76.18 -77.26 -7.37
-81.62 -74.23 -7.25
-69 -57.68 -5.74
-68.39 -74.2 -0.65
-79.55 -75.9 -7.4
-81.52 -74.34 -7.25
-68.68 -74.74 -1.12
-82.01 -73.81 -7.23
-68.77 -57.8 -5.74
-72.93 -77.47 -7.14
-70.24 -75.54 -1
-66.05 -60.01 -5.91
-65.82 -60.28 -5.95
-81.1 -74.75 -7.27
-66.7 -74.55 -4.66
-77.09 -77.03 -7.4
-69.94 -74.42 0.37
-75.48 -77.4 -7.33
-81.92 -73.92 -7.23
-81.83 -74.02 -7.24
-68.98 -57.68 -5.74
-74.39 -77.5 -7.32
-66.29 -59.74 -5.89
-78.76 -76.35 -7.45
-66.99 -74.94 -6.06
-75.03 -77.46 -7.31
-68.14 -58.18 -5.75
-80.27 -75.43 -7.35
-68.34 -58.05 -5.74
-67.96 -58.3 -5.76
-82.02 -73.81 -7.24
-66.62 -74.59 -5.59
-70.2 -76.87 -6.62
-67.27 -58.82 -5.81
-76.55 -77.19 -7.38
-66.65 -74.45 -4.35
-68.75 -57.8 -5.75
-79.72 -75.81 -7.39
-70.09 -74.84 -0.04
-66.7 -74.63 -5.12
-65.54 -73.38 -5.91
-70.98 -77.13 -6.74
-81.44 -74.44 -7.26
-81.74 -74.13 -7.25
-67.77 -58.43 -5.77
-79.26 -76.09 -7.42
-81.54 -74.34 -7.26
-81.33 -74.55 -7.26
-68.54 -57.92 -5.75
-81.84 -74.02 -7.26
-66.8 -74.4 -3.6
-70.52 -75.19 -0.24
-69.55 -76.61 -6.48
-81.23 -74.65 -7.27
-81.01 -74.85 -7.29
-73.45 -77.52 -7.21
-63.47 -65.75 -5.97
-69.62 -74.17 0.47
-76.89 -77.11 -7.38
-81.75 -74.13 -7.26
-72.46 -77.44 -7.06
-80.9 -74.95 -7.3
-81.65 -74.24 -7.25
-68.96 -57.67 -5.75
-68.31 -58.05 -5.74
-66.82 -74.81 -6.06
-82.04 -73.81 -7.24
-81.95 -73.92 -7.22
-63.39 -67.02 -5.93
-70.15 -75.44 -0.85
-71.43 -77.26 -6.87
-79.89 -75.72 -7.38
-81.35 -74.55 -7.27
-68.51 -57.92 -5.74
-80.04 -75.62 -7.37
-80.17 -75.53 -7.36
-81.14 -74.75 -7.28
-80.43 -75.34 -7.34
-66.98 -70.78 1.01
-67.92 -58.3 -5.76
-68.94 -57.67 -5.75
-68.72 -57.79 -5.76
-68.5 -57.92 -5.73
-67.57 -58.55 -5.78
-69.32 -74.03 0.44
-73.79 -77.54 -7.29
-63.38 -66.88 -5.91
-81.67 -74.24 -7.25
-80.57 -75.24 -7.33
-68.1 -58.17 -5.76
-77.42 -76.95 -7.47
-64.69 -71.21 -3.09
-81.26 -74.65 -7.28
-68.71 -57.79 -5.75
-82.06 -73.81 -7.24
-81.58 -74.34 -7.25
-66.62 -74.61 -5.28
-81.87 -74.03 -7.24
-81.47 -74.45 -7.27
-81.97 -73.92 -7.23
-68.92 -57.67 -5.74
-81.78 -74.13 -7.25
-80.82 -75.05 -7.28
-81.37 -74.55 -7.28
-70.37 -75.66 -1.02
-67.73 -58.42 -5.76
-66.7 -74.39 -3.74
-72.02 -77.4 -6.97
-67.21 -75.18 -6.08
-70.26 -75.45 -0.74
-68.28 -58.04 -5.75
-82.07 -73.81 -7.25
-68.08 -58.17 -5.74
-68.69 -57.79 -5.74
-81.88 -74.03 -7.26
-81.98 -73.92 -7.24
-68.9 -57.67 -5.75
-69.58 -73.95 0.73
-80.71 -75.15 -7.3
-70.4 -76.99 -6.62
-78.31 -76.61 -7.49
-69.69 -74.59 0.08
-67.06 -58.94 -5.82
-66.91 -59.07 -5.83
-66.69 -74.48 -4.05
-81.6 -74.34 -7.25
-67.21 -58.81 -5.8
-79.5 -76 -7.41
-81.8 -74.13 -7.25
-81.07 -74.85 -7.28
-66.8 -74.41 -3.45
-78.11 -76.7 -7.51
-68.47 -57.91 -5.73
-66.76 -59.2 -5.83
-81.7 -74.24 -7.26
-80.84 -75.05 -7.31
-80.96 -74.95 -7.3
-81.5 -74.45 -7.26
-70.54 -75.1 -0.02
-64.61 -71.19 -3.24
-66.73 -74.49 -3.9
-66.65 -74.7 -5.74
-70.58 -75.2 -0.13
-78.69 -76.45 -7.45
-68.66 -57.79 -5.75
-68.25 -58.04 -5.74
-77.47 -76.95 -7.54
-66.48 -59.46 -5.87
-82 -73.92 -7.24
-65.93 -72.51 -1.76
-67.35 -58.68 -5.8
-70.44 -75.28 -0.32
-67.87 -58.29 -5.76
-80.36 -75.44 -7.35
-68.88 -57.66 -5.75
-79.2 -76.19 -7.42
-63.59 -69.26 -5.8
-66.68 -74.65 -4.81
-81.91 -74.03 -7.24
-63.37 -67.74 -5.88
-66.73 -74.58 -4.19
-66.6 -59.33 -5.86
-82.1 -73.82 -7.23
-69.36 -74.24 0.3
-66.67 -74.56 -4.34
-81.2 -74.76 -7.26
-81.42 -74.55 -7.27
-81.62 -74.35 -7.26
-70.12 -74.34 0.69
-81.82 -74.14 -7.25
-67.5 -58.55 -5.78
-81.73 -74.24 -7.24
-66.08 -59.86 -5.9
-69.39 -74.15 0.43
-68.43 -57.91 -5.74
-68.86 -57.66 -5.74
-79.69 -75.91 -7.4
-67.67 -58.42 -5.76
-82.02 -73.92 -7.24
-81.31 -74.66 -7.28
-66.33 -59.59 -5.87
-78.54 -76.54 -7.46
-69.08 -57.54 -5.76
-77.75 -76.87 -7.52
-81.53 -74.45 -7.26
-68.64 -57.78 -5.74
-67 -75.05 -6.08
-69.63 -76.72 -6.5
-63.45 -68.58 -5.83
-68.85 -57.66 -5.72
-68.03 -58.16 -5.75
-79.84 -75.82 -7.4
-81.93 -74.03 -7.25
-80.64 -75.25 -7.33
-68.22 -58.03 -5.74
-69.95 -74.32 0.63
-80.77 -75.15 -7.3
-68.41 -57.91 -5.73
-70.08 -74.54 0.46
-81.11 -74.86 -7.28
-66.58 -74.46 -4.19
-81.22 -74.76 -7.28
-67.83 -58.29 -5.76
-70.1 -75.63 -1.07
-68.37 -74.61 -1.06
-69.93 -74.73 0.14
-68.62 -57.78 -5.74
-68.83 -57.66 -5.73
-66.81 -74.52 -3.59
-81.75 -74.24 -7.26
-80.27 -75.54 -7.36
-79.09 -76.28 -7.44
-82.14 -73.82 -7.16
-75 -77.55 -7.35
-80.53 -75.35 -7.33
-81.65 -74.35 -7.26
-63.32 -66.74 -5.9
-81.55 -74.45 -7.28
-81.95 -74.03 -7.24
-73.05 -77.58 -7.15
-81.85 -74.14 -7.25
-82.04 -73.93 -7.24
-66.73 -74.5 -3.74
-68.6 -57.78 -5.74
-69.05 -57.53 -5.77
-72.58 -77.54 -7.07
-78.02 -76.79 -7.5
-64.62 -71.32 -3.24
-81.45 -74.56 -7.27
-75.9 -77.43 -7.37
-68.19 -58.03 -5.74
-66.99 -58.93 -5.81
-81.02 -74.96 -7.29
-81.35 -74.66 -7.27
-79.43 -76.1 -7.42
-67.3 -58.67 -5.79
-76.25 -77.36 -7.39
-67.99 -58.16 -5.75
-69.04 -57.53 -5.77
-74.49 -77.6 -7.32
-70.95 -77.22 -6.77
-71.54 -77.37 -6.87
-75.51 -77.5 -7.35
-80.02 -75.73 -7.38
-80.17 -75.63 -7.36
-68.55 -74.93 -1.33
-80.91 -75.06 -7.3
-82.15 -73.83 -7.16
-67.63 -58.41 -5.76
-68.58 -57.78 -5.74
-68.38 -57.9 -5.74
-66.83 -59.06 -5.82
-81.77 -74.25 -7.25
-63.31 -67.45 -5.85
-81.87 -74.14 -7.26
-73.5 -77.62 -7.22
-68.8 -57.65 -5.75
-82.06 -73.93 -7.24
-80.44 -75.44 -7.35
-68.56 -76.21 -6.35
-69.02 -57.53 -5.75
-63.39 -65.59 -5.95
-81.15 -74.86 -7.29
-81.68 -74.35 -7.26
-67.12 -58.8 -5.8
-81.97 -74.04 -7.24
-68.16 -58.03 -5.74
-68.79 -57.65 -5.74
-67.44 -58.54 -5.78
-81.37 -74.66 -7.29
-66.31 -74.03 -3.53
-81.27 -74.76 -7.27
-82.07 -73.93 -7.25
-69.23 -73.48 1.07
-69 -57.53 -5.76
-68.97 -73.12 1.21
-81.48 -74.56 -7.28
-67.78 -58.28 -5.76
-81.89 -74.14 -7.25
-68.35 -57.9 -5.74
-70.38 -75.38 -0.39
-66.75 -74.6 -3.88
-66.67 -74.67 -4.49
-68.77 -57.65 -5.74
-77.41 -77.06 -7.42
-80.71 -75.25 -7.33
-67.96 -58.15 -5.75
-79 -76.37 -7.45
-81.7 -74.35 -7.26
-70.41 -77.08 -6.64
-81.99 -74.04 -7.24
-67.19 -75.28 -6.1
-80.59 -75.35 -7.34
-80.83 -75.16 -7.31
-81.8 -74.25 -7.25
-68.55 -57.77 -5.73
-76.64 -77.3 -7.39
-72.11 -77.51 -6.98
-81.07 -74.96 -7.29
-68.33 -57.9 -5.73
-82.09 -73.93 -7.25
-70.1 -75.54 -0.81
-70.39 -75.48 -0.51
-76.95 -77.22 -7.39
-77.21 -77.14 -7.4
-70.37 -75.77 -1
-73.93 -77.65 -7.29
-80.96 -75.06 -7.3
-69.55 -74.38 0.39
-80.35 -75.54 -7.36
-66.12 -59.72 -5.89
-63.37 -68.44 -5.81
-81.91 -74.14 -7.25
-81.61 -74.46 -7.25
-68.98 -57.52 -5.76
-68.74 -57.65 -5.74
-81.81 -74.25 -7.27
-81.29 -74.77 -7.29
-68.53 -57.77 -5.73
-66.64 -59.19 -5.83
-66.24 -73.93 -3.36
-68.97 -57.52 -5.74
-66.5 -59.32 -5.85
-79.65 -76.02 -7.41
-64.63 -71.45 -3.23
-68.12 -58.02 -5.74
-82.01 -74.04 -7.25
-67.74 -58.28 -5.75
-68.14 -74.48 -1
-70.19 -75.45 -0.58
-81.62 -74.46 -7.26
-81.52 -74.56 -7.27
-82.11 -73.93 -7.24
-67.92 -58.15 -5.75
-69.36 -74.46 0.18
-68.51 -57.77 -5.73
-81.2 -74.87 -7.28
-66.3 -74.13 -3.7
-68.95 -57.52 -5.74
-68.31 -57.89 -5.72
-67.07 -58.79 -5.79
-68.79 -73.1 1.15
-67.56 -58.4 -5.76
-66.64 -74.58 -4.03
-79.83 -75.92 -7.4
-81.42 -74.67 -7.28
-70.42 -75.29 -0.17
-81.73 -74.36 -7.27
-68.72 -57.64 -5.74
-67.22 -58.66 -5.79
-81.93 -74.15 -7.25
-68.67 -76.33 -6.36
-69.12 -75.32 -1.25
-79.38 -76.2 -7.42
-82.03 -74.04 -7.25
-67.38 -58.53 -5.78
-81.84 -74.25 -7.26
-68.8 -72.99 1.26
-68.09 -58.02 -5.74
-68.93 -57.52 -5.74
-81.54 -74.56 -7.28
-81.64 -74.46 -7.28
-82.13 -73.93 -7.25
-70.15 -75.75 -1.07
-63.26 -67.58 -5.86
-80.26 -75.64 -7.37
-65.73 -60.12 -5.93
-66.7 -74.69 -4.18
-68.92 -57.52 -5.74
-70.24 -75.66 -0.84
-81.11 -74.97 -7.3
-68.7 -57.64 -5.74
-65.51 -60.39 -5.96
-65.62 -60.25 -5.95
-78.9 -76.47 -7.45
-66.34 -74.15 -3.55
-81.75 -74.36 -7.26
-66.38 -74.34 -4.03
-77.53 -77.06 -7.47
-67.4 -75.5 -6.13
-80.13 -75.74 -7.38
-71.66 -77.47 -6.88
-66.89 -58.92 -5.82
-82.14 -73.93 -7.26
-65.84 -59.98 -5.91
-80 -75.83 -7.39
-69.04 -75.21 -1.11
-68.48 -57.76 -5.73
-82.05 -74.04 -7.25
-68.9 -57.52 -5.73
-81.86 -74.25 -7.27
-69.61 -76.82 -6.51
-68.61 -73.18 0.98
-81.45 -74.67 -7.28
-68.68 -57.64 -5.74
-80.54 -75.45 -7.35
-68.26 -57.89 -5.75
-81.24 -74.87 -7.29
-81.96 -74.15 -7.24
-81.35 -74.77 -7.28
-64.48 -71.3 -3.37
-68.84 -76.45 -6.36
-67.69 -58.27 -5.76
-81.56 -74.57 -7.29
-71.03 -77.33 -6.77
-67.51 -58.4 -5.76
-67.87 -58.14 -5.75
-67.52 -75.61 -6.13
-68.46 -57.76 -5.73
-79.58 -76.11 -7.42
-66.32 -59.44 -5.87
-70.45 -75.49 -0.39
-80.67 -75.36 -7.34
-68.66 -57.64 -5.74
-80.8 -75.26 -7.32
-77.77 -76.98 -7.55
-70.42 -75.78 -0.87
-82.07 -74.04 -7.24
-66.61 -74.67 -4.33
-68.89 -57.51 -5.73
-81.78 -74.36 -7.26
-68.05 -58.01 -5.74
-80.92 -75.17 -7.29
-68.65 -57.64 -5.72
-77.57 -77.06 -7.54
-79.27 -76.3 -7.44
-82.16 -73.94 -7.26
-81.98 -74.15 -7.25
-68.44 -57.76 -5.72
-81.68 -74.47 -7.26
-78.61 -76.64 -7.48
-78.78 -76.56 -7.46
-68.88 -73 1.36
-81.88 -74.26 -7.26
-75.07 -77.65 -7.35
-73.1 -77.69 -7.15
-68.24 -57.88 -5.74
-72.56 -77.64 -7.08
-68.87 -57.51 -5.73
-80.44 -75.55 -7.37
-66.39 -74.35 -3.87
-65.57 -73.2 -3.36
-81.16 -74.97 -7.3
-66.33 -74.24 -3.71
-66.17 -59.57 -5.88
-78.43 -76.73 -7.5
-65.1 -73.11 -5.88
-65.92 -59.84 -5.9
-81.49 -74.67 -7.28
-81.69 -74.47 -7.28
-81.8 -74.36 -7.26
-75.54 -77.6 -7.37
-67.19 -75.38 -6.11
-65.18 -73.23 -5.9
-81.39 -74.77 -7.28
-67.83 -58.14 -5.75
-80.94 -75.17 -7.32
-68.86 -74.89 -0.71
-82 -74.15 -7.24
-68.85 -57.51 -5.72
-73.51 -77.72 -7.23
-66.7 -59.04 -5.83
-82.09 -74.05 -7.24
-82.18 -73.94 -7.27
-67.15 -58.65 -5.79
-68.41 -57.76 -5.73
-81.07 -75.07 -7.27
-63.38 -68.98 -5.76
-68.01 -58.01 -5.74
-68.21 -57.88 -5.73
-67.65 -58.26 -5.75
-68.82 -73.21 1.17
-68.62 -57.63 -5.73
-81.07 -75.07 -7.31
-67.3 -58.52 -5.79
-72.18 -77.61 -6.98
-74.61 -77.71 -7.33
-66.23 -74.04 -3.37
-68.74 -72.88 1.39
-81.61 -74.57 -7.28
-78.26 -76.82 -7.51
-68.83 -57.51 -5.73
-81.91 -74.26 -7.26
-70.42 -77.18 -6.66
-78.07 -76.9 -7.52
-81.51 -74.67 -7.29
-66.67 -74.7 -4.02
-82.2 -73.94 -7.25
-82.02 -74.15 -7.25
-82.11 -74.05 -7.24
-69.74 -76.93 -6.51
-68.6 -57.63 -5.73
-70.2 -75.85 -1.07
-66.35 -74.25 -3.55
-67.45 -58.39 -5.76
-64.67 -61.7 -4.6
-79.18 -76.39 -7.45
-80.74 -75.36 -7.34
-68.18 -57.88 -5.73
-70.44 -75.69 -0.62
-81.31 -74.88 -7.27
-68.42 -74.83 -1.03
-81.73 -74.47 -7.27
-79.8 -76.03 -7.41
-66.96 -58.78 -5.8
-66.81 -58.91 -5.81
-81.63 -74.57 -7.29
-80.86 -75.27 -7.32
-81.93 -74.26 -7.27
-81.2 -74.98 -7.3
-76.06 -77.54 -7.37
-80.62 -75.46 -7.35
-68.38 -57.75 -5.73
-81.42 -74.78 -7.28
-82.12 -74.05 -7.26
-64.43 -71.41 -3.51
-81.83 -74.37 -7.27
-63.18 -66.58 -5.89
-68.81 -57.5 -5.72
-76.67 -77.4 -7.41
-79.95 -75.94 -7.4
-67.98 -58 -5.73
-68.37 -57.75 -5.72
-66.72 -74.81 -4.17
-80.38 -75.65 -7.36
-80.24 -75.75 -7.38
-80.11 -75.84 -7.39
-67.78 -58.13 -5.75
-68.58 -57.62 -5.73
-66.51 -59.17 -5.83
-74.02 -77.76 -7.29
-82.04 -74.16 -7.25
-68.79 -57.5 -5.72
-69.83 -74.43 0.7
-81.33 -74.88 -7.29
-81.95 -74.26 -7.26
-81.54 -74.68 -7.29
-81.75 -74.47 -7.28
-71.15 -77.43 -6.78
-82.14 -74.05 -7.25
-81.85 -74.37 -7.26
-76.41 -77.48 -7.38
-82.24 -73.95 -7.18
-68.66 -74.87 -0.79
-65.98 -59.7 -5.88
-68.15 -57.87 -5.73
-77.49 -77.17 -7.43
-68.56 -57.62 -5.72
-67.95 -58 -5.73
-68.77 -57.5 -5.73
-68.34 -57.75 -5.72
-81.12 -75.08 -7.31
-77 -77.33 -7.41
-81.66 -74.58 -7.28
-68.76 -57.5 -5.72
-82.06 -74.16 -7.25
-67.54 -75.72 -6.16
-70.47 -75.89 -0.87
-81.46 -74.78 -7.28
-79.55 -76.22 -7.42
-67.58 -58.25 -5.76
-63.19 -66.01 -5.92
-82.16 -74.05 -7.25
-68.54 -57.62 -5.72
-81.02 -75.18 -7.31
-82.26 -73.95 -7.18
-63.35 -69.11 -5.78
-67.4 -58.38 -5.75
-70.25 -75.38 -0.2
-69.98 -75.54 -0.63
-81.25 -74.98 -7.3
-68.86 -76.56 -6.36
-67.07 -58.64 -5.79
-81.97 -74.27 -7.26
-67.23 -58.51 -5.78
-69.89 -77.04 -6.52
-68.9 -73.23 1.29
-68.12 -57.87 -5.72
-81.88 -74.37 -7.27
-80.55 -75.56 -7.36
-70.35 -75.29 0
-77.32 -77.25 -7.41
-81.37 -74.88 -7.29
-71.64 -77.57 -6.89
-82.08 -74.16 -7.24
-81.78 -74.48 -7.27
-68.52 -57.62 -5.72
-66.34 -59.29 -5.86
-66.2 -59.43 -5.86
-66.61 -59.03 -5.82
-68.74 -57.49 -5.72
-68.31 -57.74 -5.72
-82.18 -74.05 -7.26
-81.89 -74.37 -7.28
-68.9 -73.12 1.4
-81.59 -74.68 -7.28
-67.73 -58.12 -5.75
-81.69 -74.58 -7.28
-81.99 -74.27 -7.26
-81.49 -74.78 -7.29
-79.74 -76.13 -7.42
-80.93 -75.28 -7.32
-67.91 -57.99 -5.73
-80.82 -75.37 -7.34
-70.28 -75.58 -0.44
-82.19 -74.05 -7.27
-65.63 -73.44 -3.38
-68.72 -57.49 -5.71
-68.94 -57.37 -5.74
-81.17 -75.08 -7.31
-70.52 -77.29 -6.66
-82.1 -74.16 -7.25
-80.7 -75.47 -7.35
-65.53 -73.31 -3.37
-67.53 -58.25 -5.75
-70.22 -75.86 -0.93
-68.09 -57.86 -5.73
-68.28 -57.74 -5.72
-81.61 -74.68 -7.29
-70.26 -75.96 -1.07
-73.1 -77.79 -7.16
-79.14 -76.49 -7.45
-81.81 -74.48 -7.28
-68.49 -57.61 -5.73
-70.04 -74.96 0.29
-68.7 -57.49 -5.72
-77.6 -77.17 -7.49
-66.87 -58.77 -5.79
-77.82 -77.08 -7.56
-70.5 -75.8 -0.62
-81.92 -74.37 -7.27
-72.61 -77.75 -7.08
-79.47 -76.31 -7.44
-66.67 -74.81 -4.01
-73.48 -77.81 -7.25
-81.72 -74.58 -7.28
-68.93 -57.36 -5.75
-80.47 -75.66 -7.36
-81.08 -75.18 -7.3
-67.69 -58.12 -5.75
-70.07 -75.56 -0.52
-69.41 -74.48 0.46
-79.92 -76.04 -7.41
-74.57 -77.8 -7.34
-82.02 -74.27 -7.26
-82.12 -74.16 -7.25
-81.3 -74.99 -7.3
-68.68 -57.49 -5.72
-81.41 -74.89 -7.29
-68.47 -57.61 -5.72
-68.58 -74.96 -0.89
-78.83 -76.66 -7.49
-81.83 -74.48 -7.27
-82.21 -74.06 -7.28
-81.52 -74.79 -7.29
-68.91 -57.36 -5.75
-66.71 -74.82 -3.85
-80.22 -75.85 -7.39
-82.13 -74.16 -7.26
-67.86 -57.99 -5.73
-80.35 -75.76 -7.38
-70.06 -75.94 -1.15
-68.05 -57.86 -5.73
-81.74 -74.58 -7.29
-72.17 -77.71 -6.99
-75.19 -77.76 -7.36
-80.98 -75.28 -7.33
-78.08 -77 -7.55
-68.45 -57.61 -5.72
-68.25 -57.73 -5.73
-82.04 -74.27 -7.26
-67.16 -58.5 -5.78
-70.38 -75.6 -0.34
-67 -58.63 -5.79
-68.89 -57.36 -5.75
-79.02 -76.58 -7.46
-75.65 -77.7 -7.38
-81.94 -74.38 -7.27
-67.32 -58.37 -5.76
-82.23 -74.06 -7.26
-70.49 -75.9 -0.74
-78.68 -76.75 -7.5
-68.66 -57.48 -5.72
-66.69 -58.89 -5.81
-80.1 -75.95 -7.39
-80.63 -75.57 -7.36
-70.32 -75.49 -0.2
-68.43 -57.61 -5.71
-81.33 -74.99 -7.31
-70.36 -75.98 -0.96
-65.65 -59.96 -5.91
-81.22 -75.09 -7.31
-81.44 -74.89 -7.3
-81.65 -74.69 -7.28
-77.67 -77.17 -7.55
-68.23 -57.73 -5.72
-67.48 -58.24 -5.75
-68.87 -57.36 -5.74
-65.54 -60.09 -5.92
-67.71 -75.93 -6.19
-81.12 -75.18 -7.32
-68.02 -57.86 -5.73
-80.77 -75.47 -7.35
-82.06 -74.27 -7.26
-82.24 -74.06 -7.29
-76.06 -77.64 -7.4
-68.86 -57.36 -5.74
-67.65 -58.11 -5.74
-71.22 -77.54 -6.78
-68.64 -57.48 -5.72
-73.96 -77.85 -7.31
-68.38 -74.84 -0.86
-81.87 -74.48 -7.26
-81.96 -74.38 -7.29
-80.89 -75.38 -7.34
-81.56 -74.79 -7.29
-67.83 -57.98 -5.73
-66 -59.55 -5.88
-67.54 -75.82 -6.17
-82.16 -74.17 -7.25
-66.39 -59.15 -5.83
-63.07 -67.28 -5.84
-79.38 -76.41 -7.45
-65.44 -73.2 -3.19
-68.62 -57.48 -5.72
-81.88 -74.48 -7.28
-82.26 -74.06 -7.28
-82.08 -74.27 -7.26
-68.51 -73.18 1.17
-70.63 -77.39 -6.67
-68.19 -57.73 -5.72
-81.78 -74.59 -7.28
-81.03 -75.28 -7.34
-68.87 -76.66 -6.38
-81.68 -74.69 -7.29
-64.34 -71.41 -3.35
-82.17 -74.17 -7.28
-68.4 -57.6 -5.72
-79.71 -76.23 -7.42
-68.84 -57.35 -5.74
-81.58 -74.79 -7.3
-67.44 -58.24 -5.74
-63.13 -68.29 -5.81
-81.26 -75.09 -7.31
-76.45 -77.58 -7.4
-67.99 -57.85 -5.73
-67.61 -58.11 -5.74
-64.35 -71.63 -3.68
-81.99 -74.38 -7.28
-68.59 -57.48 -5.72
-81.79 -74.59 -7.3
-67.79 -57.98 -5.73
-82.28 -74.06 -7.27
-81.49 -74.89 -7.29
-68.82 -57.35 -5.74
-68.38 -57.6 -5.71
-80.56 -75.67 -7.36
-81.16 -75.19 -7.32
-82.19 -74.17 -7.27
-71.71 -77.68 -6.89
-67.09 -74.63 -2.24
-65.72 -59.82 -5.9
-82 -74.38 -7.29
-64.59 -61.54 -4.67
-79.88 -76.14 -7.42
-77.05 -77.43 -7.43
-67.26 -58.36 -5.76
-66.22 -59.28 -5.85
-68.8 -73.01 1.55
-69.87 -77.14 -6.54
-81.9 -74.49 -7.29
-76.78 -77.51 -7.41
-63.59 -70.43 -5.76
-82.1 -74.28 -7.26
-70.17 -75.77 -0.65
-67.09 -58.49 -5.78
-68.8 -57.35 -5.74
-68.41 -73.72 0.62
-66.78 -58.75 -5.8
-81.71 -74.69 -7.29
-78.4 -76.93 -7.51
-68.58 -57.47 -5.72
-68.16 -57.72 -5.73
-68.35 -57.6 -5.72
-81.51 -74.89 -7.31
-68.6 -73.31 1.17
-68.87 -73.34 1.34
-65.39 -73.8 -5.87
-67.95 -57.85 -5.73
-78.6 -76.85 -7.49
-81.4 -75 -7.29
-82.21 -74.17 -7.27
-82.11 -74.28 -7.29
-70.41 -75.99 -0.83
-68.78 -57.35 -5.73
-80.71 -75.58 -7.36
-81.92 -74.49 -7.29
-80.05 -76.05 -7.41
-80.84 -75.48 -7.35
-70.1 -75.17 0.21
-70.09 -76.04 -1.15
-70.17 -75.38 -0.03
-66.91 -58.62 -5.79
-80.46 -75.77 -7.38
-68.77 -57.35 -5.72
-70.34 -75.4 0.05
-66.47 -59.01 -5.83
-79.31 -76.5 -7.46
-81.83 -74.59 -7.29
-82.03 -74.38 -7.28
-81.31 -75.09 -7.31
-68.55 -57.47 -5.72
-77.59 -77.28 -7.43
-82.22 -74.17 -7.28
-79.61 -76.33 -7.45
-80.34 -75.86 -7.39
-82.31 -74.07 -7.26
-68.13 -57.72 -5.73
-66.65 -74.83 -3.69
-67.75 -57.97 -5.73
-80.2 -75.96 -7.4
-81.74 -74.69 -7.29
-68.54 -57.47 -5.72
-73.25 -77.9 -7.16
-72.73 -77.86 -7.08
-81.63 -74.8 -7.29
-77.37 -77.36 -7.43
-67.56 -58.1 -5.74
-81.84 -74.59 -7.3
-82.04 -74.38 -7.29
-68.71 -73.32 1.27
-68.33 -57.59 -5.71
-66.7 -74.93 -3.85
-70.5 -75.91 -0.6
-65.56 -73.54 -3.39
-67.93 -57.84 -5.72
-70.46 -75.81 -0.46
-82.14 -74.28 -7.27
-66.59 -58.88 -5.81
-80.98 -75.39 -7.33
-68.11 -57.72 -5.72
-81.43 -75 -7.3
-63.08 -65.71 -5.88
-67.37 -58.23 -5.75
-82.34 -74.07 -7.18
-82.24 -74.17 -7.28
-81.22 -75.19 -7.32
-68.75 -57.34 -5.72
-65.34 -60.22 -5.96
-81.95 -74.49 -7.29
-65.79 -59.68 -5.88
-68.31 -57.59 -5.71
-63.06 -68.14 -5.8
-68.51 -57.47 -5.71
-81.11 -75.29 -7.33
-72.27 -77.82 -6.99
-81.65 -74.8 -7.3
-82.15 -74.28 -7.28
-68.74 -57.34 -5.72
-73.69 -77.93 -7.23
-70.5 -76 -0.72
-67.71 -57.97 -5.73
-65.52 -74.02 -5.91
-70.19 -76.06 -1.04
-74.58 -77.91 -7.36
-81.34 -75.1 -7.32
-81.56 -74.9 -7.3
-67.73 -74.65 -1.16
-68.72 -57.34 -5.71
-80.64 -75.68 -7.36
-81.97 -74.49 -7.3
-82.36 -74.07 -7.2
-63.14 -68.82 -5.74
-81.77 -74.7 -7.29
-68.28 -57.59 -5.71
-75.25 -77.86 -7.36
-67.02 -58.48 -5.78
-69.16 -76.89 -6.38
-67.18 -58.35 -5.77
-82.17 -74.28 -7.29
-82.26 -74.18 -7.28
-68.08 -57.71 -5.72
