-64.84 -58.36 -5.59
-67.64 -56.13 -5.62
-65.82 -57.42 -5.69
-68.68 -74.86 2.29
-66.57 -75.84 -0.96
-67.44 -56.25 -5.61
-76.18 -79.32 -7.47
-67.87 -56 -5.64
-83.02 -75.68 -7.41
-82.92 -75.78 -7.42
-62.84 -64.25 -0.85
-67.24 -56.38 -5.61
-67.04 -56.51 -5.62
-83.29 -75.39 -7.39
-82.62 -76.07 -7.43
-78.52 -78.65 -7.57
-83.11 -75.58 -7.41
-64.9 -58.41 -4.98
-64.65 -58.69 -4.81
-64.76 -58.55 -4.82
-64.39 -58.96 -4.83
-64.61 -58.62 -5.81
-67.66 -56.13 -5.62
-83.2 -75.48 -7.41
-82.3 -76.36 -7.44
-81.85 -76.74 -7.44
-64.98 -58.22 -5.76
-82.81 -75.88 -7.42
-66.92 -77.41 -5.97
-80.11 -77.89 -7.59
-67.89 -56 -5.64
-81.96 -76.64 -7.47
-66.5 -56.9 -5.64
-62.78 -64.39 -0.93
-82.07 -76.55 -7.45
-81.1 -77.28 -7.53
-77.34 -79.04 -7.51
-82.71 -75.97 -7.43
-82.5 -76.17 -7.43
-67.26 -56.38 -5.61
-67.68 -56.13 -5.61
-64.16 -59.16 -5.86
-83 -75.68 -7.41
-62.68 -64.81 -0.96
-66.87 -56.64 -5.62
-61.82 -70.13 -5.66
-78.28 -78.73 -7.54
-80.24 -77.81 -7.58
-67.46 -56.26 -5.62
-83.09 -75.58 -7.42
-70.46 -79.06 -6.49
-83.37 -75.29 -7.31
-62.97 -64.14 -0.67
-79.61 -78.14 -7.63
-78.88 -78.47 -7.69
-67.92 -78.01 -6.1
-82.39 -76.26 -7.44
-81.48 -77 -7.5
-78.69 -78.55 -7.67
-64.08 -59.36 -4.89
-66.7 -56.77 -5.63
-83.27 -75.38 -7.4
-83.18 -75.48 -7.4
-82.89 -75.78 -7.43
-65.63 -75.49 -2
-74.73 -79.48 -7.35
-66.35 -57.03 -5.65
-82.59 -76.07 -7.42
-83.36 -75.29 -7.32
-81.94 -76.64 -7.45
-66.04 -75.74 -1.72
-82.27 -76.36 -7.43
-83.08 -75.58 -7.4
-68.53 -74.53 2.45
-75.71 -79.37 -7.44
-82.69 -75.97 -7.43
-62.54 -64.92 -1.28
-67.7 -56.13 -5.61
-78.67 -78.56 -7.6
-64.51 -58.76 -5.82
-68.57 -76.68 -0.1
-65.96 -75.82 -2.06
-66.03 -57.29 -5.68
-64.3 -59.09 -4.88
-73.93 -79.51 -7.18
-63.39 -60.28 -5.8
-62.75 -64.82 -0.85
-67.08 -56.52 -5.61
-80.66 -77.54 -7.56
-66.9 -56.64 -5.62
-79.91 -77.97 -7.62
-67.49 -56.26 -5.62
-64.76 -58.49 -5.77
-83.16 -75.48 -7.41
-68.49 -74.62 2.33
-79.75 -78.05 -7.63
-82.97 -75.68 -7.41
-82.15 -76.45 -7.44
-66.2 -57.16 -5.67
-62.49 -65.05 -1.37
-68.8 -75.47 1.68
-64.9 -58.41 -4.92
-67.29 -56.39 -5.61
-82.87 -75.78 -7.41
-79.4 -78.22 -7.64
-83.25 -75.38 -7.4
-80.93 -77.36 -7.54
-65.96 -75.64 -1.71
-71.97 -79.37 -6.76
-66.55 -56.9 -5.64
-82.36 -76.26 -7.42
-63.69 -59.87 -5.8
-66.92 -56.65 -5.63
-62.51 -63.21 -2.67
-67.1 -56.52 -5.62
-67.51 -56.26 -5.61
-66.87 -76.06 -1.03
-68.63 -76.79 -0.26
-65.76 -75.6 -2.03
-81.56 -76.91 -7.5
-67.72 -56.14 -5.62
-81.68 -76.82 -7.47
-68.62 -74.74 2.29
-83.05 -75.58 -7.42
-81.91 -76.64 -7.42
-82.46 -76.16 -7.43
-63.33 -73.1 -3.46
-68.42 -75.72 1.09
-82.76 -75.87 -7.43
-82.66 -75.97 -7.42
-83.33 -75.28 -7.36
-82.95 -75.68 -7.4
-83.14 -75.48 -7.41
-82.55 -76.07 -7.43
-76.96 -79.1 -7.49
-63.78 -59.73 -5.82
-67.32 -56.39 -5.61
-71.19 -79.21 -6.63
-83.23 -75.38 -7.4
-68.67 -76.89 -0.42
-81.3 -77.09 -7.5
-68.44 -75.62 1.22
-65.75 -57.56 -5.7
-68.96 -76.44 0.54
-65.6 -57.69 -5.7
-82.01 -76.54 -7.46
-67.74 -56.14 -5.62
-73.45 -79.48 -7.09
-65.18 -58.09 -5.75
-81.16 -77.18 -7.51
-62.79 -64.08 -1.22
-65.46 -57.83 -5.73
-67.53 -56.27 -5.61
-66.75 -56.78 -5.63
-75.07 -79.41 -7.42
-80.75 -77.45 -7.54
-83.03 -75.58 -7.41
-65.91 -57.43 -5.69
-68.86 -76.15 0.85
-82.84 -75.77 -7.42
-67.34 -56.39 -5.61
-82.74 -75.87 -7.42
-83.12 -75.48 -7.41
-62.68 -64.2 -1.41
-77.93 -78.8 -7.54
-69.29 -78.61 -6.29
-67.14 -56.52 -5.61
-62.87 -63.94 -1.13
-62.88 -64.41 -0.84
-68.84 -76.24 0.71
-67.76 -56.14 -5.61
-83.3 -75.28 -7.4
-83.21 -75.38 -7.4
-62.83 -64.84 -0.75
-66.43 -75.71 -1.12
-82.1 -76.45 -7.44
-64.93 -58.36 -5.78
-81.4 -77 -7.49
-64.33 -59.04 -5.84
-73.02 -79.45 -6.98
-72.53 -79.41 -6.87
-82.63 -75.97 -7.42
-68.42 -74.51 2.33
-64.93 -58.41 -5.08
-82.21 -76.35 -7.44
-82.93 -75.67 -7.4
-67.55 -56.27 -5.62
-82.42 -76.16 -7.43
-82.31 -76.26 -7.43
-65.1 -58.72 -5.23
-65.06 -58.56 -5.36
-64.98 -58.57 -5
-64.92 -58.57 -4.85
-64.97 -58.4 -5.33
-66.27 -57.17 -5.67
-63.06 -63.99 -0.71
-62.72 -64.06 -1.43
-66.42 -57.04 -5.64
-68.83 -74.77 2.35
-83.2 -75.38 -7.4
-62.75 -64.37 -1.17
-67.78 -56.14 -5.61
-66.02 -75.73 -1.89
-62.82 -64.54 -0.93
-64.93 -58.39 -5.4
-80.29 -77.71 -7.58
-68.71 -74.65 2.38
-82.72 -75.87 -7.42
-68.88 -74.67 2.46
-66.97 -56.65 -5.63
-82.82 -75.77 -7.41
-62.84 -63.93 -1.23
-83.1 -75.48 -7.4
-82.52 -76.06 -7.42
-68.75 -76.99 -0.59
-65.81 -75.51 -1.86
-80.99 -77.27 -7.53
-68.84 -75.57 1.52
-62.78 -64.53 -1.04
-67.57 -56.27 -5.63
-83.01 -75.57 -7.41
-66.61 -56.91 -5.64
-69 -76.54 0.37
-83.28 -75.27 -7.41
-64.96 -58.41 -5.12
-64.96 -58.4 -5.18
-62.63 -64.63 -1.36
-66.8 -56.78 -5.63
-67.37 -56.4 -5.6
-63.36 -72.99 -3.28
-67.79 -56.15 -5.63
-74.24 -79.44 -7.27
-68.03 -74.35 2.17
-67.17 -56.53 -5.62
-65.62 -75.38 -2.01
-61.58 -68.41 -5.61
-67.59 -56.27 -5.62
-82.9 -75.67 -7.41
-63.93 -59.59 -5.89
-67.38 -56.4 -5.62
-81.49 -76.9 -7.49
-83.18 -75.37 -7.4
-76.5 -79.16 -7.48
-81.95 -76.54 -7.45
-66.12 -57.3 -5.68
-62.52 -63.36 -2.67
-64.96 -58.4 -5.28
-65.36 -57.97 -5.73
-64.61 -58.83 -4.84
-68.69 -76.5 0.15
-67.59 -73.98 2.15
-63.44 -73.12 -3.3
-82.99 -75.57 -7.4
-64.96 -58.39 -5.44
-83.08 -75.47 -7.41
-82.38 -76.16 -7.43
-67.19 -56.53 -5.62
-82.79 -75.77 -7.41
-64.06 -59.51 -4.92
-66.38 -75.61 -1.11
-64.48 -58.91 -5.81
-82.16 -76.35 -7.44
-82.59 -75.96 -7.42
-81.71 -76.72 -7.47
-83.26 -75.27 -7.39
-80.39 -77.62 -7.57
-77.58 -78.87 -7.53
-67.82 -56.15 -5.61
-79.08 -78.29 -7.67
-62.65 -65.08 -1.15
-82.68 -75.87 -7.42
-82.05 -76.44 -7.44
-82.48 -76.06 -7.42
-68.87 -75.67 1.38
-64.76 -58.7 -4.85
-68.51 -75.82 0.92
-64.16 -59.32 -5.69
-64.98 -58.4 -5.22
-62.88 -64.09 -1.12
-67.83 -56.15 -5.62
-62.83 -64.69 -0.92
-67.01 -56.66 -5.63
-67.71 -74.1 2.12
-66.47 -57.05 -5.64
-70.52 -78.98 -6.48
-83.25 -75.27 -7.39
-67.61 -56.28 -5.62
-82.97 -75.57 -7.4
-82.26 -76.25 -7.43
-61.62 -65.42 -5.7
-82.87 -75.67 -7.41
-68.42 -74.3 2.45
-62.84 -64.39 -1.07
-67.94 -77.91 -6.11
-68.91 -76.72 -0.05
-61.59 -68.28 -5.59
-83.06 -75.47 -7.41
-83.15 -75.37 -7.41
-62.91 -64.55 -0.83
-67.22 -56.53 -5.62
-80.8 -77.35 -7.54
-81.57 -76.81 -7.48
-67.85 -56.15 -5.63
-68.57 -75.53 1.31
-82.57 -75.96 -7.41
-62.7 -64.65 -1.26
-67.03 -56.66 -5.64
-67.63 -56.28 -5.62
-66.84 -56.79 -5.63
-82.76 -75.77 -7.41
-67.42 -56.41 -5.61
-66.66 -56.92 -5.63
-68.66 -75.93 0.88
-64.32 -59.24 -4.9
-65.7 -57.71 -5.7
-63.58 -60.16 -5.81
-66 -57.44 -5.69
-71.84 -79.26 -6.75
-63.2 -72.83 -3.78
-80.5 -77.53 -7.56
-81.19 -77.08 -7.5
-67.01 -76.16 -1.23
-83.14 -75.37 -7.39
-83.23 -75.27 -7.38
-73.83 -79.41 -7.18
-63.87 -59.73 -5.87
-82.85 -75.67 -7.41
-61.54 -67.13 -5.64
-78.63 -78.45 -7.66
-68.93 -76.53 0.23
-68.34 -74.49 2.2
-81.05 -77.17 -7.5
-67.44 -56.41 -5.61
-82.65 -75.86 -7.42
-82.94 -75.57 -7.4
-65.14 -58.24 -5.77
-65.66 -75.19 -1.68
-69.24 -78.51 -6.27
-67.87 -56.16 -5.62
-67.66 -56.28 -5.62
-83.03 -75.47 -7.41
-78.43 -78.54 -7.56
-71.14 -79.11 -6.62
-83.12 -75.37 -7.41
-75.98 -79.21 -7.47
-82.43 -76.06 -7.43
-81.78 -76.62 -7.46
-75.61 -79.27 -7.43
-62.71 -64.8 -1.22
-74.56 -79.37 -7.35
-82.33 -76.15 -7.43
-83.21 -75.27 -7.39
-82.22 -76.25 -7.42
-62.7 -64.94 -1.19
-66.88 -56.79 -5.63
-67.25 -56.54 -5.62
-67.67 -56.28 -5.63
-62.91 -64.7 -0.82
-66.35 -57.18 -5.66
-61.81 -69.49 -5.62
-66.03 -75.72 -2.07
-83.02 -75.47 -7.39
-82.53 -75.96 -7.42
-67.46 -56.41 -5.62
-81.88 -76.53 -7.46
-81.64 -76.72 -7.47
-78.81 -78.36 -7.68
-67.89 -56.16 -5.63
-81.4 -76.9 -7.49
-82.73 -75.76 -7.42
-82.92 -75.57 -7.4
-75.11 -79.32 -7.39
-68.05 -74.45 2
-65.87 -57.58 -5.7
-79.85 -77.87 -7.6
-68.01 -74.24 2.16
-68.96 -76.43 0.37
-81.27 -76.99 -7.5
-68.71 -76.88 -0.59
-81.98 -76.44 -7.44
-82.62 -75.86 -7.43
-64.13 -59.46 -5.88
-64.93 -58.57 -4.9
-67.83 -77.8 -6.12
-66.53 -57.06 -5.64
-67.86 -74.22 2.06
-64.11 -59.52 -4.98
-62.62 -64.92 -1.42
-66.7 -56.93 -5.64
-66.19 -57.32 -5.68
-83.1 -75.37 -7.39
-72.35 -79.3 -6.87
-77.19 -78.93 -7.51
-83.19 -75.27 -7.39
-62.08 -70.54 -5.65
-82.09 -76.34 -7.44
-66.88 -77.2 -5.98
-67.91 -56.16 -5.63
-67.08 -56.67 -5.63
-65.49 -73.43 0.4
-78.58 -78.45 -7.6
-68.83 -75.36 1.62
-73.3 -79.37 -7.09
-83 -75.47 -7.4
-68.82 -75.46 1.5
-80.58 -77.44 -7.54
-79.67 -77.95 -7.62
-68.69 -76.78 -0.45
-79.51 -78.03 -7.62
-67.29 -56.54 -5.62
-68.4 -74.91 1.79
-67.62 -76.44 -1.02
-82.81 -75.66 -7.42
-67.92 -56.16 -5.62
-68.6 -74.42 2.39
-82.71 -75.76 -7.41
-64.92 -58.51 -5.78
-62.87 -64.23 -1.22
-66.91 -56.8 -5.64
-67.49 -56.42 -5.61
-68.46 -75.61 1.05
-67.7 -56.29 -5.62
-79.98 -77.78 -7.59
-82.5 -75.96 -7.41
-82.4 -76.05 -7.42
-67.93 -74.12 2.18
-67.71 -56.29 -5.63
-83.08 -75.37 -7.39
-67.98 -74.34 2.02
-78.15 -78.61 -7.55
-62.96 -72.31 -3.92
-72.92 -79.34 -6.98
-69.07 -78.4 -6.26
-65.6 -57.85 -5.72
-68.55 -75.02 1.77
-83.27 -75.17 -7.31
-79.32 -78.11 -7.63
-67.94 -56.16 -5.64
-67.11 -56.67 -5.63
-82.28 -76.15 -7.43
-80.85 -77.25 -7.53
-82.59 -75.86 -7.42
-67.31 -56.54 -5.62
-82.89 -75.56 -7.41
-64.03 -59.62 -5.65
-77.89 -78.69 -7.53
-65.47 -57.98 -5.74
-76.83 -79 -7.49
-70.41 -78.88 -6.47
-83.17 -75.26 -7.39
-82.79 -75.66 -7.42
-66.06 -75.63 -1.91
-66.74 -56.93 -5.64
-81.83 -76.53 -7.45
-67.51 -56.42 -5.62
-68.25 -74.16 2.36
-68.35 -74.28 2.32
-82.98 -75.46 -7.39
-81.48 -76.8 -7.48
-68.24 -76.62 -0.67
-82.17 -76.24 -7.42
-68.72 -76.69 -0.32
-68.47 -74.4 2.29
-82.58 -75.86 -7.4
-83.25 -75.17 -7.33
-82.05 -76.34 -7.44
-83.16 -75.26 -7.39
-63.37 -73.4 -5.68
-67.13 -56.67 -5.64
-67.74 -56.29 -5.62
-66.08 -57.45 -5.69
-67.95 -56.17 -5.65
-65.79 -57.72 -5.71
-66.25 -57.32 -5.69
-69.05 -76.35 0.48
-66.41 -57.19 -5.66
-76.48 -79.07 -7.46
-66.58 -57.06 -5.65
-80.1 -77.69 -7.58
-68.32 -74.38 2.2
-81.7 -76.62 -7.46
-83.06 -75.36 -7.4
-67.53 -56.42 -5.62
-82.67 -75.76 -7.42
-67.75 -56.29 -5.63
-82.87 -75.56 -7.4
-74.17 -79.34 -7.26
-82.77 -75.66 -7.41
-64.27 -59.39 -4.93
-67.33 -56.55 -5.63
-63.44 -72.99 -3.46
-61.83 -69.36 -5.6
-82.96 -75.46 -7.39
-82.36 -76.05 -7.42
-67.97 -56.17 -5.64
-81.08 -77.07 -7.49
-66.65 -76.98 -5.98
-67.55 -56.42 -5.62
-62.86 -72.43 -5.67
-81.92 -76.43 -7.44
-61.89 -69.62 -5.63
-82.76 -75.66 -7.39
-71.67 -79.15 -6.75
-64.85 -58.65 -5.8
-70.12 -78.76 -6.44
-83.04 -75.36 -7.4
-65.36 -58.12 -5.74
-81.56 -76.71 -7.47
-82.65 -75.76 -7.41
-66.96 -56.81 -5.63
-83.13 -75.26 -7.4
-67.99 -56.17 -5.66
-82.45 -75.95 -7.42
-67.77 -56.3 -5.64
-83.22 -75.16 -7.37
-82.24 -76.14 -7.43
-65.95 -57.59 -5.7
-62.77 -64.5 -1.41
-65.04 -58.56 -5.2
-65.01 -58.57 -5.1
-62.65 -64.91 -1.55
-63.77 -60.03 -5.82
-64.99 -58.57 -4.94
-68.23 -74.26 2.21
-66.83 -77.1 -5.98
-68.75 -75.14 1.72
-82.84 -75.56 -7.41
-62.8 -64.36 -1.42
-67.73 -77.68 -6.13
-81.18 -76.98 -7.5
-80.21 -77.6 -7.57
-69.27 -76.28 0.7
-68.01 -56.17 -5.65
-67.37 -56.55 -5.61
-68.19 -74.05 2.36
-83.12 -75.26 -7.38
-82.33 -76.05 -7.41
-67.17 -56.68 -5.63
-80.34 -77.52 -7.55
-66.63 -57.07 -5.65
-67.79 -56.3 -5.64
-83.02 -75.36 -7.4
-82.93 -75.46 -7.39
-80.91 -77.16 -7.51
-68.92 -76.42 0.22
-80.63 -77.34 -7.54
-67.57 -56.43 -5.63
-68.02 -56.17 -5.65
-82.83 -75.56 -7.39
-81.29 -76.89 -7.49
-66.8 -56.94 -5.64
-82 -76.33 -7.43
-67.64 -73.86 2.1
-82.53 -75.85 -7.41
-67.39 -56.55 -5.63
-68.95 -78.29 -6.26
-82.92 -75.46 -7.38
-82.1 -76.24 -7.43
-83.19 -75.16 -7.41
-65 -58.54 -5.48
-62.61 -64.9 -1.67
-68.58 -75.52 1.14
-64.41 -59.19 -5.86
-82.42 -75.95 -7.41
-83.1 -75.26 -7.39
-79.02 -78.18 -7.66
-68.91 -75.56 1.33
-71.2 -79.03 -6.61
-74.58 -79.28 -7.33
-61.66 -66.29 -5.7
-62.89 -64.22 -1.34
-77.5 -78.76 -7.52
-68.77 -75.34 1.48
-82.62 -75.75 -7.41
-62.84 -64.52 -1.3
-67.6 -56.43 -5.62
-67.01 -56.81 -5.62
-63.89 -59.89 -5.83
-83 -75.36 -7.39
-67.82 -56.3 -5.62
-82.2 -76.14 -7.42
-83.18 -75.16 -7.39
-64.78 -58.85 -4.87
-66.83 -56.94 -5.65
-73.68 -79.3 -7.17
-81.86 -76.43 -7.44
-64.53 -59.06 -5.85
-66.15 -57.46 -5.7
-62.87 -64.37 -1.32
-66.48 -57.2 -5.66
-65.02 -58.55 -5.42
-65.7 -57.86 -5.73
-64.21 -59.52 -5.1
-64.77 -58.79 -5.81
-82.71 -75.65 -7.41
-65.14 -58.39 -5.77
-62.21 -70.68 -5.66
-81.39 -76.79 -7.48
-65.02 -58.57 -5.04
-72.26 -79.2 -6.86
-67.03 -56.81 -5.64
-64.32 -59.33 -5.86
-82.5 -75.85 -7.41
-66.59 -76.88 -5.98
-67.21 -56.69 -5.63
-75.94 -79.11 -7.45
-81.73 -76.52 -7.46
-66.33 -57.33 -5.68
-67.63 -56.43 -5.61
-82.98 -75.36 -7.39
-78.4 -78.43 -7.55
-67.42 -56.56 -5.63
-68.72 -75.93 0.69
-67.23 -56.69 -5.64
-64.68 -58.99 -4.86
-82.79 -75.55 -7.41
-67.84 -56.31 -5.62
-82.69 -75.65 -7.41
-82.59 -75.75 -7.41
-73.24 -79.27 -7.08
-67.64 -56.43 -5.62
-83.07 -75.25 -7.41
-81.6 -76.61 -7.47
-82.28 -76.04 -7.42
-83.16 -75.15 -7.39
-78.57 -78.34 -7.65
-67.85 -56.31 -5.63
-82.97 -75.36 -7.38
-82.88 -75.45 -7.41
-69.99 -78.66 -6.44
-80.71 -77.24 -7.53
-68.7 -76.67 -0.47
-82.06 -76.23 -7.43
-81.48 -76.7 -7.47
-67.44 -56.56 -5.63
-64.03 -59.75 -5.91
-62.7 -64.77 -1.59
-64.13 -59.66 -5.08
-64.12 -59.65 -5.29
-82.16 -76.14 -7.42
-82.38 -75.94 -7.41
-81.94 -76.33 -7.43
-65.3 -58.26 -5.77
-68.69 -76.2 0.26
-77.14 -78.83 -7.5
-69.05 -76.16 0.61
-72.74 -79.23 -6.97
-80.41 -77.42 -7.55
-68.75 -76.78 -0.63
-83.15 -75.15 -7.38
-69.04 -76.25 0.47
-68.38 -76.53 -0.56
-69.03 -76.34 0.33
-82.47 -75.85 -7.4
-82.77 -75.55 -7.41
-67.87 -56.31 -5.64
-67.67 -56.44 -5.63
-65.89 -57.73 -5.71
-65.05 -58.56 -5.3
-78.13 -78.51 -7.54
-83.05 -75.25 -7.4
-66.69 -57.08 -5.65
-74.95 -79.21 -7.39
-66.3 -75.48 -1.45
-65.05 -58.57 -5.14
-80.96 -77.06 -7.49
-82.86 -75.45 -7.41
-79.62 -77.85 -7.59
-66.04 -57.6 -5.7
-66.88 -56.95 -5.65
-82.56 -75.75 -7.41
-82.66 -75.65 -7.41
-67.27 -56.69 -5.63
-67.07 -56.82 -5.64
-67.89 -56.31 -5.64
-65.06 -58.56 -5.25
-64.7 -58.93 -5.82
-64.11 -71.94 -0.57
-83.13 -75.15 -7.39
-83.04 -75.25 -7.39
-68.87 -76.41 0.07
-74.24 -79.25 -7.24
-68.6 -74.82 1.83
-82.75 -75.55 -7.4
-65.6 -58 -5.74
-81.2 -76.88 -7.48
-81.8 -76.42 -7.43
-67.68 -56.44 -5.63
-67.74 -76.82 -2
-82.24 -76.04 -7.41
-82.94 -75.35 -7.39
-79.77 -77.76 -7.58
-65.05 -58.73 -4.97
-64.66 -59.14 -4.89
-64.98 -58.73 -4.87
-66.74 -57.08 -5.65
-67.1 -56.82 -5.64
-66.55 -57.21 -5.66
-68.41 -76.44 -0.42
-80.8 -77.15 -7.5
-67.47 -56.57 -5.63
-82.84 -75.45 -7.4
-82.34 -75.94 -7.41
-68.88 -78.19 -6.25
-81.06 -76.97 -7.5
-68.9 -76.6 -0.23
-75.32 -79.15 -7.43
-81.31 -76.79 -7.47
-71 -78.92 -6.6
-82.64 -75.65 -7.4
-62.15 -70.29 -5.64
-78.69 -78.25 -7.68
-65.48 -58.13 -5.75
-62.84 -64.35 -1.55
-71.73 -79.07 -6.73
-81.67 -76.51 -7.45
-68.59 -76.56 -0.46
-61.71 -67.44 -5.66
-79.41 -77.93 -7.62
-82.44 -75.84 -7.4
-67.91 -56.32 -5.63
-67.49 -56.57 -5.63
-83.02 -75.25 -7.38
-67.29 -56.7 -5.64
-82 -76.23 -7.43
-66.24 -57.47 -5.7
-77.81 -78.59 -7.53
-67.71 -56.44 -5.63
-68.95 -76.05 0.62
-82.92 -75.35 -7.38
-68.53 -75.51 0.99
-83.1 -75.15 -7.4
-82.11 -76.13 -7.42
-66.4 -57.34 -5.68
-82.53 -75.74 -7.41
-81.54 -76.6 -7.46
-67.72 -56.44 -5.64
-78.47 -78.34 -7.59
-69.09 -76.62 -0.13
-66.93 -56.95 -5.64
-68.92 -76.32 0.2
-82.72 -75.55 -7.4
-68.3 -76.52 -0.71
-68.8 -76.03 0.52
-79.22 -78.01 -7.62
-82.62 -75.65 -7.4
-76.74 -78.89 -7.48
-64.97 -58.73 -4.93
-67.93 -56.32 -5.63
-66.24 -75.46 -1.61
-81.88 -76.32 -7.44
-66.6 -57.22 -5.66
-67.53 -56.57 -5.62
-62.79 -64.79 -1.49
-67.73 -76.34 -1.06
-83.09 -75.15 -7.39
-83 -75.25 -7.39
-80.03 -77.59 -7.57
-82.81 -75.45 -7.4
-82.31 -75.94 -7.41
-68.9 -75.25 1.54
-64.29 -59.52 -5.23
-82.9 -75.35 -7.38
-67.32 -56.7 -5.64
-79.87 -77.67 -7.59
-67.95 -56.32 -5.63
-68.64 -76 0.41
-67.23 -76.17 -1.45
-65.11 -58.54 -5.78
-76.36 -78.96 -7.45
-68.79 -74.94 1.78
-80.47 -77.32 -7.54
-81.74 -76.42 -7.43
-82.4 -75.84 -7.41
-81.39 -76.69 -7.47
-82.79 -75.45 -7.4
-82.98 -75.25 -7.39
-82.19 -76.03 -7.42
-82.5 -75.74 -7.41
-83.17 -75.05 -7.3
-83.07 -75.15 -7.39
-67.97 -56.32 -5.63
-81.96 -76.23 -7.42
-64.2 -59.65 -5.41
-67.15 -56.83 -5.63
-67.75 -56.45 -5.63
-73.71 -79.21 -7.16
-82.07 -76.13 -7.42
-67.98 -56.32 -5.64
-66.18 -75.45 -1.77
-82.88 -75.35 -7.38
-67.35 -56.7 -5.64
-77.49 -78.66 -7.51
-64.21 -59.62 -5.9
-65.82 -57.87 -5.72
-62.06 -69.77 -5.63
-83.16 -75.05 -7.3
-78.99 -78.08 -7.64
-82.59 -75.64 -7.39
-66.12 -57.61 -5.71
-66.97 -56.96 -5.65
-74.49 -79.18 -7.32
-66.79 -57.09 -5.65
-67.55 -56.58 -5.63
-64.43 -59.4 -5.04
-82.68 -75.54 -7.42
-81.6 -76.51 -7.45
-63.39 -72.73 -3.79
-82.17 -76.03 -7.4
-80.13 -77.5 -7.56
-82.96 -75.25 -7.38
-66.31 -57.48 -5.7
-67.79 -56.45 -5.64
-64.33 -59.54 -5.02
-65.26 -58.41 -5.79
-63.1 -72.21 -3.93
-67.77 -56.45 -5.64
-64.01 -59.9 -5.88
-72.31 -79.11 -6.85
-67 -75.86 -1.24
-82.68 -75.54 -7.39
-67.17 -56.83 -5.64
-68.82 -76.3 0.07
-81.83 -76.32 -7.42
-66.13 -75.62 -2.27
-82.27 -75.93 -7.41
-63.51 -72.87 -3.64
-82.77 -75.44 -7.4
-66.35 -76.57 -5.95
-82.86 -75.35 -7.37
-82.47 -75.74 -7.4
-64.79 -59 -4.9
-67.57 -56.58 -5.63
-83.05 -75.14 -7.38
-82.95 -75.25 -7.37
-64.22 -59.67 -5.2
-80.56 -77.23 -7.53
-80.97 -76.96 -7.49
-65.02 -58.73 -5.03
-72.8 -79.15 -6.96
-67.85 -77.59 -6.14
-69.02 -76.24 0.31
-82.36 -75.84 -7.4
-61.86 -68.57 -5.62
-63.65 -73.54 -5.71
-73.29 -79.18 -7.06
-68.79 -78.08 -6.26
-62.8 -64.64 -1.65
-66.5 -76.68 -5.95
-68 -56.33 -5.65
-70.01 -78.57 -6.41
-81.22 -76.78 -7.47
-65.02 -58.68 -5.81
-70.86 -78.82 -6.58
-64.33 -59.51 -5.49
-80.83 -77.05 -7.49
-83.04 -75.14 -7.37
-66.48 -57.35 -5.67
-62.42 -70.95 -5.69
-75.88 -79.01 -7.43
-67.38 -56.71 -5.64
-69.05 -76.15 0.45
-67.59 -56.58 -5.63
-80.25 -77.41 -7.54
-66.65 -57.22 -5.66
-62.15 -70.04 -5.64
-81.45 -76.6 -7.46
-67.01 -56.96 -5.65
-67.42 -76.75 -2.62
-66 -57.75 -5.71
-68.02 -56.33 -5.64
-78.36 -78.33 -7.54
-65.68 -73.22 0.47
-82.75 -75.44 -7.39
-66.83 -57.09 -5.66
-82.65 -75.54 -7.39
-82.55 -75.64 -7.4
-68.89 -76.13 0.34
-65.04 -58.72 -5.13
-81.07 -76.87 -7.49
-83.12 -75.04 -7.35
-68.03 -56.33 -5.65
-82.44 -75.74 -7.4
-81.91 -76.22 -7.42
-64.69 -59.14 -4.95
-63.97 -60.05 -5.85
-63.86 -60.19 -5.83
-78.11 -78.41 -7.53
-64.58 -59.28 -4.93
-67.61 -56.58 -5.64
-61.84 -65.73 -5.74
-64.06 -74.12 -5.77
-82.02 -76.12 -7.42
-67.81 -56.46 -5.64
-83.02 -75.14 -7.37
-68.84 -75.14 1.52
-67.21 -56.84 -5.64
-82.23 -75.93 -7.41
-81.31 -76.69 -7.46
-82.83 -75.34 -7.39
-66.68 -76.79 -5.96
-64.59 -59.27 -4.99
-82.92 -75.24 -7.38
-71.63 -78.97 -6.72
-82.53 -75.64 -7.4
-65.44 -58.28 -5.77
-67.83 -56.46 -5.64
-83.1 -75.04 -7.36
-67.42 -56.71 -5.63
-82.33 -75.83 -7.4
-68.67 -75.42 1.07
-82.11 -76.03 -7.41
-62 -69.25 -5.58
-68.06 -56.33 -5.64
-82.72 -75.44 -7.4
-62.88 -64.65 -1.54
-67.84 -56.46 -5.66
-74.82 -79.11 -7.37
-77.06 -78.73 -7.5
-68.61 -74.71 1.79
-82.62 -75.54 -7.4
-82.91 -75.24 -7.37
-78.7 -78.15 -7.66
-63.97 -71.55 -0.73
-68.07 -56.33 -5.66
-81.65 -76.41 -7.44
-81.77 -76.31 -7.43
-82.81 -75.34 -7.38
-66.87 -57.1 -5.66
-67.05 -56.97 -5.64
-67.24 -56.84 -5.65
-82.99 -75.14 -7.39
-83.08 -75.04 -7.39
-80.64 -77.13 -7.51
-82.2 -75.93 -7.4
-67.64 -56.59 -5.63
-65.74 -58.02 -5.73
-65.09 -58.73 -5.07
-67.87 -56.46 -5.64
-67.44 -56.72 -5.64
-65.07 -58.7 -5.51
-66.16 -75.34 -1.77
-74.03 -79.14 -7.24
-69.83 -78.46 -6.41
-82.41 -75.73 -7.4
-62.87 -64.5 -1.67
-64.95 -58.82 -5.82
-66.27 -75.36 -1.62
-68.6 -74.81 1.66
-75.26 -79.05 -7.42
-82.98 -75.14 -7.38
-64.97 -58.87 -4.96
-64.47 -74.61 -5.76
-68.08 -56.34 -5.67
-83.07 -75.04 -7.36
-68.86 -75.44 1.15
-81.51 -76.5 -7.46
-82.79 -75.34 -7.38
-66.54 -57.36 -5.68
-66.71 -57.23 -5.66
-64.5 -59.4 -5.16
-67.66 -56.59 -5.64
-82.69 -75.44 -7.4
-82.5 -75.63 -7.4
-82.59 -75.54 -7.4
-64.96 -58.87 -5.07
-82.29 -75.83 -7.41
-82.88 -75.24 -7.38
-81.85 -76.22 -7.42
-64.98 -58.88 -4.9
-64.51 -59.42 -4.97
-66.38 -57.49 -5.7
-65.62 -58.15 -5.74
-67.81 -76.72 -2.02
-62.91 -64.35 -1.69
-78.44 -78.23 -7.66
-68.1 -56.34 -5.66
-67.46 -56.72 -5.65
-68.32 -73.93 2.26
-64.5 -59.38 -5.55
-81.96 -76.12 -7.42
-82.68 -75.44 -7.39
-67.27 -56.85 -5.65
-82.96 -75.14 -7.38
-82.87 -75.24 -7.37
-82.07 -76.02 -7.41
-80.31 -77.31 -7.54
-66.23 -57.62 -5.7
-67.68 -56.59 -5.64
-65.09 -58.71 -5.45
-83.05 -75.04 -7.37
-82.77 -75.34 -7.38
-82.38 -75.73 -7.4
-64.94 -59.3 -5.36
-65.18 -58.88 -5.3
-65.06 -58.88 -5.11
-65.03 -58.88 -5
-65.12 -58.72 -5.33
-66.92 -57.11 -5.66
-67.1 -56.98 -5.64
-64.41 -59.5 -5.88
-67.89 -56.47 -5.65
-65.92 -57.89 -5.72
-79.52 -77.74 -7.59
-81.36 -76.59 -7.47
-68.12 -56.34 -5.67
-72.11 -79 -6.84
-79.35 -77.82 -7.6
-67.7 -56.59 -5.65
-76.65 -78.79 -7.48
-63.6 -73.32 -5.65
-82.26 -75.83 -7.4
-63.36 -72.48 -3.78
-81.11 -76.77 -7.47
-82.47 -75.63 -7.39
-65.11 -58.73 -5.17
-63.47 -72.62 -3.62
-64.71 -74.86 -5.78
-81.71 -76.31 -7.42
-80.98 -76.86 -7.48
-73.62 -79.11 -7.15
-67.91 -56.47 -5.64
-67.4 -76.65 -2.62
-61.85 -67.6 -5.68
-68.14 -56.34 -5.66
-67.27 -76.07 -1.47
-79.82 -77.57 -7.57
-62.95 -64.51 -1.57
-64.42 -59.53 -5.34
-66.09 -57.76 -5.71
-82.56 -75.53 -7.41
-64.65 -59.27 -5.11
-69.07 -75.46 1.22
-82.15 -75.92 -7.41
-67.51 -56.72 -5.63
-77.71 -78.48 -7.53
-67.31 -56.85 -5.65
-82.94 -75.13 -7.38
-83.03 -75.03 -7.37
-64.12 -59.91 -5.93
-65.01 -58.84 -5.51
-61.93 -65.6 -5.71
-64.43 -59.55 -5.14
-65.25 -58.56 -5.79
-71.41 -78.86 -6.7
-70.81 -78.72 -6.57
-62.2 -69.91 -5.63
-67.93 -56.47 -5.64
-61.85 -67.31 -5.65
-64.89 -59.01 -5
-72.71 -79.05 -6.95
-66.76 -57.24 -5.67
-82.65 -75.43 -7.39
-81.21 -76.68 -7.46
-82.84 -75.23 -7.38
-80.69 -77.04 -7.49
-74.36 -79.08 -7.3
-81.57 -76.4 -7.45
-79.64 -77.65 -7.59
-69.67 -78.35 -6.4
-67.13 -56.98 -5.65
-67.72 -56.6 -5.65
-64.78 -59.14 -5.06
-67.82 -76.24 -1.09
-82.74 -75.33 -7.38
-82.02 -76.02 -7.41
-68.94 -75.24 1.36
-79.12 -77.9 -7.62
-66.28 -57.63 -5.71
-67.52 -56.73 -5.64
-67.95 -56.47 -5.63
-68.16 -56.35 -5.67
-82.44 -75.63 -7.39
-68.87 -76.21 0.04
-79.95 -77.48 -7.55
-73.1 -79.07 -7.05
-66.39 -76.47 -5.94
-81.79 -76.21 -7.42
-64.55 -59.39 -5.41
-82.92 -75.13 -7.38
-81.91 -76.11 -7.42
-67.78 -76.71 -2.18
-82.33 -75.73 -7.4
-78.34 -78.23 -7.6
-82.53 -75.53 -7.41
-81.44 -76.49 -7.45
-66.96 -57.11 -5.66
-63.46 -72.61 -3.79
-66.61 -57.37 -5.68
-83 -75.03 -7.39
-80.81 -76.94 -7.5
-82.82 -75.23 -7.38
-65.14 -58.73 -5.27
-68.34 -74.97 1.2
-64.93 -58.96 -5.81
-65.04 -58.87 -5.17
-67.55 -56.73 -5.64
-67.16 -56.98 -5.65
-76.19 -78.85 -7.46
-67.75 -56.6 -5.64
-82.72 -75.33 -7.39
-82.62 -75.43 -7.4
-66.45 -57.5 -5.7
-82.22 -75.82 -7.4
-67.84 -76.8 -2.36
-67.34 -56.86 -5.64
-82.52 -75.53 -7.38
-82.9 -75.13 -7.38
-67.5 -76.29 -1.68
-78.9 -77.98 -7.63
-82.99 -75.03 -7.38
-64.57 -59.37 -5.86
-64.35 -59.68 -5.32
-67.89 -77.48 -6.14
-65.07 -75.21 -5.81
-66.05 -75.21 -1.93
-68.48 -74.17 2.08
-82.1 -75.92 -7.41
-65.16 -58.72 -5.38
-67.97 -56.48 -5.64
-82.41 -75.63 -7.39
-64.69 -59.23 -5.85
-82.8 -75.23 -7.38
-67.98 -56.48 -5.65
-77.37 -78.55 -7.51
-66.81 -57.24 -5.67
-80.36 -77.21 -7.54
-63.19 -72.09 -3.93
-64.26 -71.83 -0.63
-63.76 -72.91 -3.32
-67.34 -75.99 -1.33
-68.66 -75.41 0.91
-82.7 -75.33 -7.39
-83.08 -74.93 -7.28
-68.87 -77.98 -6.26
-82.6 -75.43 -7.39
-66.18 -75.33 -1.95
-65.86 -58.03 -5.73
-63.36 -72.36 -3.78
-66.25 -75.62 -2.46
-74.76 -79.02 -7.36
-81.87 -76.11 -7.41
-80.05 -77.39 -7.54
-80.5 -77.12 -7.5
-67.37 -56.86 -5.65
-81.28 -76.58 -7.46
-67.73 -77.37 -6.15
-81.64 -76.3 -7.42
-67.58 -56.73 -5.64
-82.88 -75.13 -7.37
-75.71 -78.91 -7.43
-82.97 -75.03 -7.37
-64.82 -59.1 -5.83
-64.82 -59.14 -5.17
-67.78 -56.61 -5.64
-61.9 -66.46 -5.71
-82.29 -75.72 -7.41
-64.94 -59.01 -5.11
-81.74 -76.21 -7.41
-82.18 -75.82 -7.4
-68.01 -56.48 -5.64
-81.97 -76.01 -7.41
-82.07 -75.92 -7.4
-65.1 -58.87 -5.27
-64.74 -59.29 -5.03
-64.83 -59.12 -5.52
-64.71 -59.27 -5.35
-65.45 -58.43 -5.77
-65.58 -58.3 -5.77
-68.65 -77.86 -6.28
-81.51 -76.39 -7.44
-82.96 -75.03 -7.37
-82.87 -75.13 -7.36
-67.79 -56.61 -5.65
-83.06 -74.93 -7.28
-82.58 -75.43 -7.39
-82.38 -75.63 -7.38
-64.96 -59.02 -4.94
-71.93 -78.9 -6.82
-67.01 -57.12 -5.66
-82.77 -75.23 -7.39
-68.02 -56.48 -5.64
-81.01 -76.76 -7.47
-67.4 -56.86 -5.65
-75.22 -78.96 -7.4
-66.18 -57.77 -5.71
-64.49 -59.53 -5.53
-73.86 -79.04 -7.22
-82.67 -75.33 -7.38
-63.34 -72.72 -5.71
-82.48 -75.52 -7.4
-67.21 -56.99 -5.64
-77.03 -78.62 -7.49
-68.7 -75.31 1.02
-65.73 -58.17 -5.75
-67.6 -56.74 -5.64
-64.39 -59.67 -5.45
-66.03 -57.9 -5.72
-69.29 -76.53 -0.22
-67.81 -56.61 -5.65
-66.67 -57.38 -5.68
-80.16 -77.3 -7.53
-64.72 -74.75 -5.77
-78.03 -78.3 -7.52
-68.55 -75.29 0.92
-81.12 -76.67 -7.46
-82.94 -75.03 -7.36
-80.86 -76.85 -7.48
-78.24 -78.22 -7.54
-65.21 -58.7 -5.8
-68.52 -76.43 -0.78
-82.26 -75.72 -7.4
-82.75 -75.23 -7.38
-67.23 -56.99 -5.66
-63.5 -72.5 -3.62
-78.62 -78.05 -7.65
-64.73 -59.28 -5.22
-67.42 -56.87 -5.65
-66.52 -57.51 -5.7
-82.84 -75.13 -7.37
-64.62 -59.41 -5.27
-82.65 -75.33 -7.38
-67.62 -56.74 -5.65
-64.63 -59.42 -5.08
-67.97 -73.99 1.8
-82.46 -75.52 -7.39
-80.71 -76.94 -7.49
-64.74 -59.26 -5.46
-66.87 -57.25 -5.67
-70.73 -78.62 -6.55
-67.84 -56.61 -5.64
-82.14 -75.82 -7.4
-81.35 -76.48 -7.45
-68.05 -56.49 -5.63
-81.81 -76.11 -7.41
-67.06 -57.12 -5.66
-66.37 -57.64 -5.71
-67.45 -76.18 -1.67
-82.55 -75.42 -7.39
-67.84 -76.61 -2.05
-83.02 -74.92 -7.35
-81.92 -76.01 -7.41
-64.87 -59.16 -4.98
-68.06 -56.49 -5.64
-82.24 -75.72 -7.39
-73.43 -79.01 -7.13
-65.02 -59.01 -5.21
-65.12 -58.87 -5.37
-67.45 -56.87 -5.66
-69.03 -75.84 0.55
-64.98 -58.99 -5.45
-67.64 -56.74 -5.65
-82.83 -75.12 -7.37
-71.35 -78.76 -6.69
-82.34 -75.62 -7.39
-72.47 -78.94 -6.93
-64.53 -59.55 -5.26
-68.1 -74.11 1.77
-82.92 -75.02 -7.36
-69.64 -78.25 -6.4
-63.46 -72.38 -3.62
-68.66 -74.7 1.61
-82.73 -75.22 -7.39
-80.56 -77.02 -7.49
-62.44 -70.45 -5.64
-68.08 -56.49 -5.64
-67.86 -56.62 -5.64
-63.36 -72.24 -3.78
-66.11 -76.13 -5.92
-63.76 -72.79 -3.31
-83 -74.92 -7.37
-76.6 -78.69 -7.47
-65.01 -59.02 -5.04
-69.08 -75.35 1.18
-82.01 -75.91 -7.41
-81.2 -76.57 -7.46
-77.7 -78.38 -7.52
-72.95 -78.97 -7.03
-82.42 -75.52 -7.4
-81.67 -76.2 -7.41
-82.62 -75.32 -7.38
-82.81 -75.12 -7.36
-66.41 -76.37 -5.93
-67.27 -57 -5.65
-82.9 -75.02 -7.37
-82.52 -75.42 -7.38
-68.1 -56.49 -5.65
-79.29 -77.72 -7.58
-81.55 -76.29 -7.44
-66.73 -57.39 -5.68
-67.88 -56.62 -5.64
-67.9 -73.42 2.18
-82.71 -75.22 -7.38
-64.34 -59.79 -5.91
-68.32 -74.86 1.16
-68.62 -75.19 1.01
-66.91 -57.26 -5.67
-64.14 -60.07 -5.89
-67.84 -76.7 -2.36
-81.42 -76.39 -7.44
-74.3 -78.98 -7.29
-67.48 -56.87 -5.65
-67.35 -75.98 -1.49
-82.98 -74.92 -7.36
-68.94 -75.24 1.19
-80.23 -77.2 -7.53
-67.1 -57.13 -5.66
-82.1 -75.81 -7.39
-78.33 -78.12 -7.66
-82.3 -75.62 -7.4
-67.68 -56.75 -5.64
-65.16 -58.88 -5.2
-66.11 -57.91 -5.73
-64.56 -59.55 -5.38
-82.5 -75.42 -7.38
-68.95 -75.14 1.3
-67.9 -56.62 -5.65
-82.6 -75.32 -7.38
-82.4 -75.52 -7.38
-82.88 -75.02 -7.37
-67.7 -76.4 -1.88
-67.8 -76.6 -2.2
-82.2 -75.71 -7.39
-67.3 -57 -5.66
-65.14 -58.86 -5.54
-81.76 -76.1 -7.4
-65.96 -58.04 -5.74
-67.7 -77.26 -6.15
-79.08 -77.8 -7.59
-64.68 -59.42 -5.2
-82.69 -75.22 -7.37
-68.82 -76.65 -1
-67.92 -56.62 -5.65
-67.93 -73.87 1.8
-82.78 -75.12 -7.37
-68.12 -56.5 -5.65
-82.29 -75.62 -7.38
-67.77 -76.69 -2.51
-82.96 -74.92 -7.36
-67.7 -56.75 -5.65
-81.97 -75.91 -7.4
-68.97 -75.34 1.07
-81.86 -76 -7.41
-62.02 -65.89 -5.75
-68.13 -56.5 -5.65
-81.27 -76.48 -7.45
-80.9 -76.75 -7.46
-79.57 -77.55 -7.57
-64.92 -59.16 -5.09
-79.41 -77.63 -7.58
-79.74 -77.46 -7.55
-82.58 -75.32 -7.38
-66.28 -75.52 -2.46
-66.79 -57.39 -5.67
-65.04 -59.01 -5.32
-66.44 -57.65 -5.71
-66.28 -57.78 -5.71
-76.13 -78.75 -7.45
-82.77 -75.12 -7.36
-82.95 -74.92 -7.36
-64.15 -73.9 -5.76
-80.76 -76.84 -7.47
-70.55 -78.51 -6.54
-82.86 -75.02 -7.36
-64.92 -59.15 -5.27
-64.81 -59.29 -5.14
-67.51 -56.88 -5.66
-67.72 -56.75 -5.65
-67.14 -57.13 -5.66
-64.69 -59.42 -5.32
-81.01 -76.66 -7.46
-78.28 -78.12 -7.59
-77.35 -78.45 -7.5
-66.61 -57.52 -5.69
-82.47 -75.42 -7.38
-82.37 -75.52 -7.38
-82.06 -75.81 -7.39
-68.16 -56.5 -5.64
-65.13 -75.11 -5.8
-69.31 -76.62 -0.53
-82.66 -75.22 -7.38
-64.33 -71.71 -0.65
-65.43 -58.58 -5.78
-67.33 -57.01 -5.66
-65.17 -58.85 -5.81
-69.13 -76.5 -0.48
-66.34 -76.26 -5.92
-67.52 -76.55 -2.65
-65.67 -75.66 -5.87
-63.84 -72.91 -3.5
-66.97 -57.26 -5.67
-68.17 -56.5 -5.65
-67.94 -56.63 -5.65
-74.71 -78.92 -7.34
-82.56 -75.32 -7.37
-65.06 -59.02 -5.14
-71.89 -78.8 -6.81
-82.84 -75.02 -7.36
-64 -60.35 -5.84
-63.73 -72.77 -3.65
-73.85 -78.95 -7.21
-81.48 -76.29 -7.43
-82.65 -75.22 -7.37
-79.86 -77.37 -7.54
-68.18 -56.5 -5.66
-82.15 -75.71 -7.4
-64.94 -59.14 -5.38
-81.11 -76.57 -7.45
-81.36 -76.38 -7.44
-81.6 -76.19 -7.42
-80.32 -77.1 -7.51
-82.74 -75.12 -7.38
-65.13 -59.03 -5.24
-65.35 -58.72 -5.81
-64.85 -59.27 -5.5
-67.18 -57.14 -5.66
-65.19 -58.87 -5.41
-65.06 -59 -5.48
-65.57 -58.45 -5.78
-69.15 -75.95 0.37
-67.96 -56.63 -5.65
-68.84 -75.22 1.07
-82.93 -74.91 -7.37
-67.55 -56.88 -5.65
-81.82 -76 -7.41
-82.83 -75.02 -7.36
-67.76 -56.76 -5.66
-67.61 -76.28 -1.87
-67.75 -56.76 -5.64
-81.7 -76.1 -7.4
-68.7 -77.76 -6.28
-82.73 -75.12 -7.36
-67.37 -57.01 -5.66
-81.92 -75.9 -7.4
-67.98 -56.63 -5.65
-82.44 -75.41 -7.39
-64.73 -59.41 -5.44
-82.02 -75.81 -7.39
-68.2 -56.51 -5.66
-67.67 -76.57 -2.51
-75.6 -78.8 -7.43
-71.32 -78.67 -6.67
-75.11 -78.86 -7.39
-82.23 -75.61 -7.39
-82.91 -74.91 -7.36
-69.58 -78.14 -6.4
-65.73 -58.32 -5.77
-65.88 -58.18 -5.74
-82.33 -75.51 -7.39
-64.52 -59.66 -5.9
-78.79 -77.87 -7.63
-62.04 -67.76 -5.67
-82.12 -75.71 -7.39
-66.84 -57.4 -5.68
-65.08 -75 -5.79
-67.01 -57.27 -5.67
-68.21 -56.51 -5.68
-67.57 -56.89 -5.65
-68 -56.63 -5.65
-82.62 -75.21 -7.38
-72.4 -78.84 -6.92
-82.22 -75.61 -7.38
-63.4 -72.13 -3.78
-81.2 -76.47 -7.44
-82.52 -75.31 -7.38
-64.13 -73.79 -5.74
-80.55 -76.92 -7.5
-67.79 -56.76 -5.65
-76.96 -78.51 -7.49
-67.49 -76.08 -1.68
-66.67 -57.53 -5.69
-73.37 -78.91 -7.12
-68.76 -76.54 -1
-66.35 -57.79 -5.71
-68.89 -75.12 1.17
-66.12 -76.02 -5.92
-82.8 -75.01 -7.36
-82.89 -74.91 -7.36
-81.55 -76.19 -7.41
-66.51 -57.66 -5.71
-65 -59.12 -5.85
-62.04 -66.61 -5.72
-68.24 -56.51 -5.67
-64.23 -60.08 -5.95
-82.31 -75.51 -7.38
-67.59 -56.89 -5.67
-82.41 -75.41 -7.38
-82.7 -75.11 -7.37
-67.88 -76.51 -2.07
-81.77 -76 -7.4
-79.94 -77.28 -7.54
-64.99 -59.16 -5.2
-70.42 -78.41 -6.54
-69.07 -75.05 1.36
-68.34 -74.24 1.67
-67.4 -57.02 -5.66
-68.25 -56.51 -5.68
-68.84 -74.61 1.66
-63.52 -72.27 -3.62
-82.6 -75.21 -7.37
-68.02 -56.64 -5.66
-82.5 -75.31 -7.38
-76.59 -78.59 -7.46
-67.82 -56.76 -5.65
-72.89 -78.87 -7.02
-67.57 -76.27 -2.02
-80.38 -77.01 -7.5
-64.15 -60.22 -5.85
-68.76 -75.1 1.07
-82.97 -74.81 -7.27
-82.78 -75.01 -7.36
-67.22 -57.15 -5.66
-81.87 -75.9 -7.4
-82.87 -74.91 -7.36
-74.27 -78.89 -7.27
-78.15 -78.11 -7.54
-66.33 -75.33 -2.15
-65.65 -75.56 -5.86
-81.98 -75.8 -7.38
-69.41 -76.44 -0.27
-66.07 -58.06 -5.73
-67.86 -76.6 -2.38
-68.04 -56.64 -5.65
-81.29 -76.37 -7.43
-80.91 -76.65 -7.46
-68.27 -56.51 -5.68
-82.68 -75.11 -7.36
-80.78 -76.74 -7.46
-77.92 -78.19 -7.52
-81.4 -76.28 -7.43
-81.64 -76.09 -7.4
-82.08 -75.7 -7.39
-82.86 -74.91 -7.35
-65.13 -58.99 -5.81
-77.69 -78.27 -7.5
-64.89 -59.3 -5.25
-66.22 -57.93 -5.73
-82.58 -75.21 -7.36
-82.96 -74.81 -7.26
-78.52 -77.94 -7.64
-82.48 -75.31 -7.36
-67.64 -56.89 -5.64
-62.08 -66.9 -5.75
-66.73 -57.54 -5.69
-67.84 -56.77 -5.66
-64.9 -59.26 -5.86
-67.44 -57.02 -5.66
-67.06 -57.28 -5.67
-82.76 -75.01 -7.36
-82.27 -75.51 -7.38
-68.06 -56.64 -5.66
-82.37 -75.41 -7.39
-68.29 -56.52 -5.68
-66.89 -57.41 -5.68
-82.17 -75.6 -7.39
-78.31 -78.02 -7.64
-81.01 -76.56 -7.45
-69.47 -76.54 -0.43
-67.86 -56.77 -5.66
-82.75 -75.01 -7.34
-68.63 -75.18 0.84
-82.36 -75.41 -7.38
-82.46 -75.31 -7.37
-67.77 -76.39 -2.06
-82.65 -75.11 -7.37
-67.65 -56.9 -5.66
-80.04 -77.18 -7.53
-67.09 -57.28 -5.68
-65.15 -59.02 -5.35
-67.27 -57.15 -5.65
-63.36 -71.99 -3.94
-82.55 -75.21 -7.37
-77.37 -78.35 -7.49
-81.72 -75.99 -7.4
-63.81 -72.67 -3.48
-65.04 -59.15 -5.42
-67.6 -76.18 -1.87
-68.08 -56.65 -5.65
-67.42 -75.88 -1.51
-66.23 -75.4 -2.63
-71.82 -78.7 -6.79
-82.64 -75.11 -7.36
-82.15 -75.6 -7.37
-82.04 -75.7 -7.39
-62.08 -66.76 -5.73
-67.88 -56.77 -5.66
-82.83 -74.9 -7.36
-66.58 -57.67 -5.71
-82.92 -74.8 -7.34
-82.73 -75.01 -7.34
-82.25 -75.5 -7.37
-65.3 -58.86 -5.83
-82.82 -74.9 -7.36
-67.29 -57.15 -5.67
-80.17 -77.09 -7.51
-67.47 -57.03 -5.66
-64.7 -59.54 -5.88
-81.92 -75.8 -7.39
-81.82 -75.89 -7.4
-81.11 -76.46 -7.44
-68.1 -56.65 -5.65
-80.59 -76.82 -7.49
-66.43 -57.8 -5.72
-67.87 -76.5 -2.23
-81.58 -76.09 -7.4
-67.9 -56.77 -5.66
-82.53 -75.21 -7.36
-65.56 -58.6 -5.79
-65.06 -59.16 -5.3
-67.69 -56.9 -5.65
-65.83 -58.33 -5.77
-79.35 -77.53 -7.57
-69.33 -75.77 0.57
-69.32 -76.33 -0.26
-73.79 -78.85 -7.19
-64.83 -59.4 -5.86
-82.9 -74.8 -7.35
-64.15 -73.69 -5.72
-65.98 -58.2 -5.75
-78.23 -78.02 -7.58
-82.43 -75.3 -7.37
-82.33 -75.4 -7.37
-81.21 -76.37 -7.43
-66.35 -75.42 -2.48
-68.12 -56.65 -5.66
-82.71 -75.01 -7.34
-71.22 -78.56 -6.66
-81.45 -76.18 -7.42
-64.39 -60.25 -5.95
-66.26 -58.08 -5.74
-62.15 -67.05 -5.75
-65.74 -58.47 -5.78
-66.15 -58.07 -5.74
-68.14 -56.65 -5.66
-67.71 -56.9 -5.65
-67.5 -57.03 -5.66
-66.95 -57.41 -5.68
-80.43 -76.91 -7.49
-76.03 -78.64 -7.45
-67.81 -77.17 -6.14
-82.8 -74.9 -7.36
-68.87 -74.81 1.37
-65.52 -75.35 -5.83
-82.22 -75.5 -7.37
-79.5 -77.44 -7.55
-82.61 -75.1 -7.36
-62.14 -67.92 -5.68
-82 -75.7 -7.39
-69.58 -78.04 -6.4
-79.15 -77.61 -7.58
-63.78 -72.54 -3.48
-67.92 -56.78 -5.66
-82.88 -74.8 -7.36
-81.32 -76.27 -7.43
-74.52 -78.81 -7.34
-81.78 -75.89 -7.4
-66.3 -57.94 -5.73
-82.1 -75.6 -7.38
-81.66 -75.99 -7.4
-67.14 -57.29 -5.68
-67.34 -57.16 -5.66
-68.16 -56.65 -5.66
-69.04 -75.04 1.22
-82.6 -75.1 -7.35
-79.65 -77.35 -7.54
-67.66 -77.06 -6.14
-78.96 -77.69 -7.59
-67.53 -57.03 -5.66
-67.55 -76.16 -2.02
-82.5 -75.2 -7.37
-82.69 -75 -7.34
-72.36 -78.74 -6.9
-82.3 -75.4 -7.37
-82.4 -75.3 -7.36
-66.8 -57.55 -5.69
-81.88 -75.79 -7.39
-70.35 -78.3 -6.53
-82.78 -74.9 -7.34
-80.67 -76.73 -7.46
-67.94 -56.78 -5.67
-67.71 -76.47 -2.53
-80.25 -77 -7.49
-75.54 -78.7 -7.42
-73.31 -78.81 -7.1
-82.86 -74.8 -7.36
-67.73 -56.91 -5.66
-82.19 -75.5 -7.37
-72.82 -78.78 -7.01
-80.79 -76.64 -7.46
-63.94 -72.8 -3.5
-82.08 -75.6 -7.37
-68.77 -77.66 -6.29
-78.74 -77.77 -7.61
-67 -57.42 -5.68
-63.37 -71.87 -3.94
-68.11 -73.99 1.58
-68.17 -56.66 -5.66
-67.36 -57.16 -5.67
-67.52 -76.95 -6.14
-68.03 -73.2 2.18
-82.48 -75.2 -7.36
-64.44 -74.04 -5.77
-82.76 -74.9 -7.36
-68.01 -73.31 2.08
-82.85 -74.8 -7.35
-82.67 -75 -7.34
-82.28 -75.4 -7.36
-82.38 -75.3 -7.36
-67.97 -56.78 -5.67
-68.75 -74.9 1.14
-81.52 -76.08 -7.4
-74.97 -78.75 -7.39
-80.9 -76.55 -7.46
-67.18 -57.29 -5.68
-77.93 -78.1 -7.5
-82.57 -75.1 -7.36
-68.83 -74.6 1.51
-64.46 -59.96 -5.93
-67.77 -56.91 -5.65
-67.54 -75.98 -1.7
-69.23 -75.65 0.58
-81.96 -75.69 -7.39
-67.48 -76.15 -2.18
-79.76 -77.26 -7.54
-67.56 -57.04 -5.66
-66.51 -57.81 -5.72
-68.2 -56.66 -5.65
-82.16 -75.5 -7.36
-81.39 -76.17 -7.42
-68.72 -74.49 1.53
-81.02 -76.45 -7.44
-81.84 -75.79 -7.39
-64.64 -73.78 -3.34
-76.87 -78.41 -7.48
-82.74 -74.9 -7.35
-69.09 -74.94 1.31
-82.36 -75.3 -7.35
-66.68 -57.68 -5.7
-68.21 -56.66 -5.66
-64.26 -60.24 -5.9
-68.93 -75.02 1.11
-66.94 -74.63 -0.3
-71.68 -78.6 -6.78
-81.25 -76.27 -7.43
-78.12 -78.01 -7.52
-63.59 -72.15 -3.63
-82.45 -75.2 -7.37
-67.79 -56.91 -5.65
-66.09 -58.21 -5.75
-65.52 -58.74 -5.81
-66.86 -57.55 -5.69
-82.73 -74.9 -7.34
-69.27 -75.76 0.43
-67.88 -76.49 -2.4
-67.99 -56.79 -5.66
-82.64 -75 -7.35
-82.83 -74.79 -7.34
-67.59 -57.04 -5.66
-81.72 -75.88 -7.4
-80.48 -76.81 -7.48
-82.54 -75.1 -7.36
-67.4 -57.17 -5.67
-65.72 -75.47 -5.83
-81.6 -75.98 -7.4
-74.13 -78.78 -7.26
-82.24 -75.4 -7.37
-81.12 -76.36 -7.43
-68.23 -56.66 -5.66
-68.01 -56.79 -5.66
-67.84 -76.39 -2.24
-81.93 -75.69 -7.37
-82.43 -75.2 -7.37
-79.87 -77.17 -7.53
-67.23 -57.3 -5.68
-67.44 -75.78 -1.53
-67.61 -57.04 -5.67
-66.4 -75.23 -2.17
-82.03 -75.59 -7.37
-71.07 -78.45 -6.66
-82.62 -75 -7.35
-82.71 -74.9 -7.33
-82.81 -74.79 -7.34
-82.33 -75.3 -7.35
-82.52 -75.1 -7.36
-67.81 -56.92 -5.66
-68.03 -56.79 -5.67
-68.24 -56.67 -5.67
-67.63 -76.08 -1.88
-67.05 -57.43 -5.68
-66.33 -75.22 -2.32
-68.05 -56.79 -5.67
-78.23 -77.92 -7.63
-66.11 -75.81 -5.88
-66.39 -57.95 -5.73
-82.12 -75.49 -7.37
-82.51 -75.1 -7.35
-67.44 -57.17 -5.67
-67.83 -56.92 -5.66
-69.49 -77.92 -6.42
-82.79 -74.79 -7.35
-68.26 -56.67 -5.68
-66.73 -57.69 -5.71
-76.44 -78.47 -7.47
-67.67 -76.36 -2.53
-81.56 -75.98 -7.39
-80.7 -76.63 -7.45
-77.59 -78.16 -7.5
-68.78 -74.07 1.9
-82.21 -75.39 -7.37
-81.67 -75.88 -7.4
-78.41 -77.84 -7.64
-82.6 -74.99 -7.35
-68.69 -77.55 -6.29
-62.34 -68.88 -5.65
-82.88 -74.69 -7.25
-67.64 -57.05 -5.67
-81.44 -76.07 -7.4
-81.78 -75.78 -7.39
-64.64 -59.83 -5.91
-65.32 -59.01 -5.82
-67.09 -57.43 -5.69
-81.99 -75.59 -7.37
-68.63 -74.05 1.81
-82.69 -74.89 -7.33
-67.78 -76.37 -2.39
-81.88 -75.69 -7.38
-66.91 -57.56 -5.69
-82.4 -75.19 -7.36
-82.3 -75.29 -7.35
-79.98 -77.07 -7.51
-68.29 -56.67 -5.65
-73.66 -78.74 -7.18
-66.58 -57.82 -5.72
-67.86 -56.92 -5.66
-77.3 -78.24 -7.48
-72.24 -78.64 -6.89
-82.77 -74.79 -7.34
-81.3 -76.17 -7.42
-70.28 -78.19 -6.54
-80.8 -76.54 -7.45
-82.58 -74.99 -7.35
-69.56 -76.44 -0.48
-62.25 -68.07 -5.69
-82.19 -75.39 -7.36
-68.3 -56.67 -5.68
-76.02 -78.54 -7.43
-82.08 -75.49 -7.37
-80.92 -76.45 -7.44
-80.53 -76.72 -7.46
-82.86 -74.69 -7.26
-65.85 -58.48 -5.78
-67.28 -57.31 -5.67
-66.29 -75.93 -5.9
-68.08 -56.8 -5.65
-81.17 -76.26 -7.43
-82.67 -74.89 -7.33
-82.48 -75.09 -7.35
-67.53 -76.86 -6.12
-66.32 -75.3 -2.65
-82.38 -75.19 -7.36
-68.32 -56.67 -5.67
-63.85 -73 -5.74
-82.75 -74.79 -7.35
-67.48 -57.18 -5.66
-67.68 -57.05 -5.66
-65.99 -58.35 -5.76
-69.38 -75.86 0.26
-66.47 -57.96 -5.73
-68.18 -73.11 2.22
-73.2 -78.71 -7.09
-67.88 -56.93 -5.66
-67.67 -76.26 -2.37
-67.78 -76.46 -2.71
-80.24 -76.89 -7.5
-78.16 -77.92 -7.56
-68.1 -56.8 -5.66
-82.74 -74.79 -7.34
-62.35 -68.75 -5.62
-72.68 -78.67 -7
-82.27 -75.29 -7.35
-82.84 -74.69 -7.27
-82.56 -74.99 -7.34
-82.65 -74.89 -7.34
-81.95 -75.59 -7.37
-68.11 -56.8 -5.67
-74.4 -78.7 -7.34
-81.62 -75.88 -7.39
-82.46 -75.09 -7.35
-82.36 -75.19 -7.35
-68.27 -73.34 2.11
-67.5 -57.18 -5.68
-81.73 -75.78 -7.39
-67.7 -57.06 -5.67
-67.9 -56.93 -5.66
-67.31 -57.31 -5.67
-63.52 -71.9 -3.78
-68.33 -56.68 -5.69
-81.02 -76.35 -7.43
-82.05 -75.49 -7.36
-64.05 -72.7 -3.33
-82.15 -75.39 -7.36
-69.41 -76.14 -0.16
-80.07 -76.98 -7.5
-69.35 -77.81 -6.42
-79.26 -77.42 -7.55
-68.13 -56.8 -5.67
-67.14 -57.44 -5.68
-67.81 -76.28 -2.24
-66.96 -57.57 -5.7
-82.54 -74.99 -7.35
-69.24 -75.65 0.41
-68.55 -77.43 -6.29
-81.83 -75.68 -7.38
-79.43 -77.33 -7.54
-67.25 -76.64 -6.11
-68.35 -56.68 -5.69
-65.74 -58.62 -5.78
-82.63 -74.89 -7.33
-62.34 -65.49 -5.79
-65.24 -59.15 -5.84
-68.09 -75.96 -1.18
-67.58 -75.88 -1.71
-75.47 -78.59 -7.41
-82.34 -75.19 -7.35
-82.24 -75.29 -7.36
-66.8 -57.7 -5.7
-74.9 -78.65 -7.38
-81.36 -76.07 -7.41
-67.53 -57.18 -5.68
-79.07 -77.5 -7.57
-71.6 -78.49 -6.78
-66.64 -57.83 -5.73
-67.93 -56.93 -5.66
-68.74 -74.38 1.5
-82.72 -74.78 -7.34
-82.43 -75.09 -7.36
-66.18 -58.22 -5.76
-67.62 -75.98 -1.88
-70.99 -78.35 -6.66
-68.37 -56.68 -5.69
-64.79 -59.7 -5.9
-67.65 -76.07 -2.05
-82.8 -74.68 -7.34
-65.49 -58.89 -5.82
-82.52 -74.99 -7.35
-78.68 -77.67 -7.59
-81.47 -75.97 -7.4
-62.31 -68.21 -5.71
-81.23 -76.16 -7.42
-68.38 -56.68 -5.7
-68.07 -73.09 2.12
-68.15 -56.81 -5.67
-82.61 -74.89 -7.33
-67.35 -57.32 -5.67
-67.74 -57.06 -5.66
-67.95 -56.93 -5.67
-62.43 -69.02 -5.67
-80.31 -76.8 -7.49
-81.91 -75.58 -7.38
-76.86 -78.3 -7.48
-82.7 -74.78 -7.35
-82.12 -75.38 -7.37
-69.65 -76.17 -0.09
-66.35 -58.09 -5.74
-81.1 -76.25 -7.42
-67.18 -57.44 -5.69
-74.03 -78.68 -7.25
-82.31 -75.19 -7.35
-65.14 -59.29 -5.85
-82.21 -75.29 -7.35
-81.79 -75.68 -7.38
-68.17 -56.81 -5.67
-82.01 -75.48 -7.36
-79.54 -77.24 -7.54
-62.44 -65.79 -5.83
-64.54 -60.12 -5.95
-66.09 -58.36 -5.77
-67.02 -57.58 -5.69
-66.85 -57.7 -5.71
-68.4 -56.69 -5.68
-82.78 -74.68 -7.35
-77.86 -77.99 -7.49
-80.7 -76.53 -7.45
-81.68 -75.77 -7.39
-69.11 -74.93 1.14
-67.77 -57.06 -5.66
-67.58 -76.06 -2.2
-80.82 -76.44 -7.44
-78.82 -77.58 -7.59
-67.97 -56.94 -5.67
-67.57 -57.19 -5.67
-82.4 -75.08 -7.36
-82.59 -74.88 -7.34
-67.36 -75.57 -1.52
-81.55 -75.87 -7.4
-82.68 -74.78 -7.34
-78.04 -77.91 -7.51
-80.55 -76.62 -7.46
-68.2 -56.81 -5.65
-82.49 -74.98 -7.34
-67.4 -57.32 -5.67
-63.69 -72.05 -3.63
-82.09 -75.38 -7.35
-68.42 -56.69 -5.69
-67.98 -56.94 -5.68
-82.76 -74.68 -7.34
-81.98 -75.48 -7.36
-67.87 -75.74 -1.15
-79.83 -77.06 -7.5
-81.87 -75.58 -7.37
-80.94 -76.34 -7.42
-67.78 -57.07 -5.67
-66.4 -75.21 -2.5
-67.5 -75.68 -1.55
-69.02 -74.72 1.28
-79.66 -77.15 -7.53
-67.74 -75.63 -1.13
-68.82 -73.84 1.98
-65.67 -58.76 -5.81
-68.99 -74.81 1.16
-82.38 -75.08 -7.35
-72.11 -78.53 -6.89
-82.66 -74.78 -7.34
-68.21 -56.82 -5.66
-82.18 -75.28 -7.35
-65.07 -59.43 -5.86
-68.85 -74.79 1.07
-66.54 -57.97 -5.74
-76.42 -78.37 -7.46
-67.22 -57.45 -5.69
-82.28 -75.18 -7.34
-67.52 -76.76 -6.11
-82.47 -74.98 -7.34
-67.5 -72.79 1.84
-81.29 -76.06 -7.41
-81.17 -76.15 -7.41
-70.27 -78.09 -6.53
-82.56 -74.88 -7.35
-81.64 -75.77 -7.38
-78.38 -77.74 -7.61
-80.4 -76.7 -7.46
-81.41 -75.96 -7.39
-67.42 -57.32 -5.68
-67.6 -57.2 -5.67
-68.02 -56.94 -5.67
-80.1 -76.88 -7.5
-64.96 -59.57 -5.88
-66.72 -57.84 -5.72
-68.23 -56.82 -5.67
-73.57 -78.64 -7.17
-67.37 -75.38 -1.22
-82.74 -74.67 -7.33
-68.03 -56.94 -5.68
-81.74 -75.67 -7.38
-82.64 -74.78 -7.33
-67.82 -57.07 -5.66
-77.52 -78.06 -7.49
-82.55 -74.88 -7.32
-68.74 -74.68 1.09
-81.84 -75.58 -7.36
-72.58 -78.57 -6.99
-82.05 -75.38 -7.36
-82.45 -74.98 -7.34
-63.56 -71.79 -3.78
-67.07 -57.58 -5.7
-82.35 -75.08 -7.36
-66.3 -58.24 -5.75
-65.86 -58.63 -5.79
-67.84 -57.07 -5.67
-67.63 -57.2 -5.68
-82.63 -74.78 -7.33
-82.15 -75.28 -7.35
-68.25 -56.82 -5.67
-82.25 -75.18 -7.35
-69.6 -76.34 -0.51
-78.15 -77.81 -7.62
-67.75 -76.26 -2.55
-81.5 -75.86 -7.39
-68.68 -73.94 1.76
-82.72 -74.67 -7.34
-79.92 -76.97 -7.49
-65.99 -58.5 -5.78
-75.95 -78.43 -7.44
-67.82 -76.36 -2.72
-67.25 -76.54 -6.1
-73.07 -78.6 -7.09
-68.27 -56.82 -5.67
-68.12 -73.2 1.97
-81.01 -76.24 -7.42
-82.52 -74.88 -7.34
-81.93 -75.47 -7.37
-68.05 -56.95 -5.68
-82.33 -75.08 -7.35
-75.5 -78.5 -7.4
-82.23 -75.18 -7.35
-67.27 -57.46 -5.69
-68.28 -56.82 -5.68
-74.39 -78.6 -7.32
-82.71 -74.67 -7.32
-63.69 -72.03 -3.8
-82.61 -74.78 -7.32
-66.93 -57.71 -5.7
-67.65 -75.97 -2.05
-82.42 -74.98 -7.35
-70.9 -78.24 -6.66
-82.02 -75.38 -7.35
-71.54 -78.39 -6.77
-68.72 -74.37 1.36
-67.47 -57.33 -5.67
-68.2 -72.99 2.17
-67.66 -57.2 -5.67
-82.12 -75.28 -7.35
-68.07 -56.95 -5.69
-81.35 -75.96 -7.4
-80.6 -76.52 -7.44
-68.93 -74.7 1.16
-78.11 -77.81 -7.55
-62.41 -65.64 -5.81
-67.86 -57.08 -5.67
-66.39 -75.2 -2.67
-67.64 -75.88 -1.89
-82.41 -74.98 -7.34
-81.69 -75.67 -7.38
-82.31 -75.08 -7.35
-77.17 -78.13 -7.48
-82.5 -74.88 -7.34
-82.69 -74.67 -7.34
-81.8 -75.57 -7.36
-81.1 -76.15 -7.41
-67.29 -75.26 -1.22
-81.58 -75.76 -7.38
-68.33 -56.83 -5.67
-65.49 -59.04 -5.82
-66.46 -58.11 -5.73
-67.49 -57.33 -5.68
-67.62 -75.78 -1.73
-67.49 -75.67 -1.7
-80.45 -76.61 -7.45
-81.9 -75.47 -7.36
-81.22 -76.05 -7.41
-64.09 -73.14 -5.76
-67.12 -57.59 -5.7
-69.24 -76.47 -1.14
-67.31 -57.46 -5.69
-68.31 -56.83 -5.67
-68.1 -56.95 -5.68
-82.59 -74.77 -7.32
-80.17 -76.78 -7.48
-80.7 -76.43 -7.44
-67.89 -57.08 -5.67
-63.87 -72.19 -3.49
-80.84 -76.33 -7.42
-69.19 -74 1.98
-69.67 -76.25 -0.39
-67.59 -75.96 -2.2
-82.19 -75.18 -7.35
-82.09 -75.28 -7.34
-76.87 -78.2 -7.46
-81.44 -75.86 -7.39
-66.63 -57.98 -5.74
-82.67 -74.67 -7.33
-63.95 -72.89 -5.72
-67.69 -57.21 -5.68
-82.77 -74.57 -7.23
-74.81 -78.54 -7.38
-67.44 -75.28 -1.09
-81.99 -75.37 -7.35
-62.39 -66.22 -5.78
-65.64 -58.9 -5.83
-67.58 -75.4 -1.12
-67.61 -72.68 1.91
-67.74 -72.7 2
-69.44 -77.71 -6.43
-68.03 -73.18 1.86
-68.34 -56.83 -5.67
-82.76 -74.57 -7.24
-69.73 -76.44 -0.69
-82.57 -74.77 -7.32
-82.38 -74.97 -7.34
-67.92 -57.08 -5.67
-82.47 -74.87 -7.35
-82.28 -75.07 -7.35
-66.98 -57.72 -5.71
-68.12 -56.96 -5.68
-68.61 -73.26 2.2
-70.15 -77.97 -6.55
-65.4 -59.17 -5.85
-66.82 -57.85 -5.7
-68.67 -77.34 -6.29
-82.65 -74.67 -7.33
-73.95 -78.57 -7.25
-79.17 -77.31 -7.55
-80.93 -76.24 -7.42
-67.72 -57.21 -5.68
-81.86 -75.47 -7.36
-68.36 -56.83 -5.68
-69.26 -76.38 -1.01
-82.17 -75.17 -7.35
-79.34 -77.22 -7.53
-67.2 -76.43 -6.09
-68.14 -56.96 -5.68
-64.72 -59.99 -5.94
-81.64 -75.66 -7.38
-78.99 -77.39 -7.56
-63.89 -72.09 -3.33
-72.05 -78.43 -6.88
-81.52 -75.76 -7.38
-67.54 -57.34 -5.68
-82.06 -75.27 -7.34
-68.12 -72.98 2.05
-78.78 -77.48 -7.57
-82.45 -74.87 -7.34
-64.63 -60.28 -5.97
-65.34 -59.32 -5.86
-66.39 -58.25 -5.75
-66.52 -58.12 -5.75
-67.36 -57.47 -5.69
-67.94 -57.09 -5.67
-76.45 -78.27 -7.44
-82.64 -74.66 -7.33
-82.35 -74.97 -7.35
-82.54 -74.77 -7.33
-81.95 -75.37 -7.35
-66.21 -58.38 -5.77
-68.16 -56.96 -5.68
-69.03 -74.6 1.25
-82.25 -75.07 -7.35
-67.75 -57.21 -5.68
-68.38 -56.84 -5.68
-82.73 -74.56 -7.26
-67.18 -57.6 -5.7
-80.24 -76.69 -7.47
-67.77 -75.52 -1.15
-69.14 -73.77 2.09
-81.73 -75.56 -7.37
-82.53 -74.77 -7.32
-67.97 -57.09 -5.67
-67.57 -57.34 -5.68
-82.43 -74.87 -7.35
-64.37 -72.86 -3.21
-81.39 -75.85 -7.39
-81.26 -75.95 -7.4
-68.18 -56.96 -5.69
-79.46 -77.13 -7.53
-69.68 -76.52 -0.96
-82.33 -74.97 -7.34
-82.62 -74.66 -7.33
-77.76 -77.88 -7.48
-68.4 -56.84 -5.68
-82.23 -75.07 -7.35
-68.41 -56.84 -5.68
-62.48 -68.36 -5.71
-82.03 -75.27 -7.34
-77.52 -77.96 -7.47
-82.13 -75.17 -7.35
-80.62 -76.42 -7.43
-79.93 -76.86 -7.5
-79.62 -77.04 -7.5
-80.75 -76.33 -7.42
-73.47 -78.53 -7.17
-67.77 -57.22 -5.68
-77.96 -77.8 -7.5
-81.13 -76.04 -7.41
-67.98 -57.09 -5.68
-66.7 -57.99 -5.74
-67.59 -57.35 -5.69
-65.83 -58.78 -5.81
-66.87 -57.86 -5.71
-82.69 -74.56 -7.34
-72.52 -78.46 -6.99
-81.91 -75.37 -7.36
-67.04 -57.73 -5.7
-82.41 -74.87 -7.34
-69.19 -73.66 2.18
-69.68 -76.43 -0.82
-67.88 -76.17 -2.41
-81.81 -75.46 -7.36
-67.22 -57.6 -5.7
-80.99 -76.14 -7.42
-81.58 -75.66 -7.38
-73.02 -78.5 -7.08
-68.22 -75.68 -0.94
-67.41 -57.47 -5.69
-68.43 -56.84 -5.69
-70.87 -78.14 -6.66
-68.2 -56.97 -5.69
-68.95 -74.49 1.26
-82.21 -75.07 -7.34
-67.34 -72.53 1.69
-66.11 -58.52 -5.78
-71.51 -78.29 -6.77
-69.2 -76.36 -1.14
-81.69 -75.56 -7.37
-81.47 -75.75 -7.38
-82.3 -74.97 -7.35
-82.5 -74.76 -7.33
-82.59 -74.66 -7.33
-67.8 -57.22 -5.68
-67.39 -72.3 1.9
-69.6 -75.77 0.15
-66.41 -75.09 -2.67
-82.1 -75.17 -7.35
-78.5 -77.55 -7.6
-74.32 -78.5 -7.32
-68.23 -56.97 -5.67
-67.87 -76.26 -2.73
-82.58 -74.66 -7.32
-82.49 -74.76 -7.32
-81.99 -75.27 -7.34
-68.98 -73.96 1.77
-68.01 -57.1 -5.67
-64.91 -59.86 -5.91
-67.83 -57.22 -5.68
-67.62 -57.35 -5.7
-67.67 -75.78 -1.9
-77.19 -78.03 -7.46
-69.28 -76.47 -1.31
-82.67 -74.55 -7.34
-68.45 -56.85 -5.69
-68.24 -56.97 -5.68
-78.08 -77.71 -7.6
-82.18 -75.07 -7.34
-80.83 -76.23 -7.42
-67.57 -72.67 1.77
-81.32 -75.85 -7.39
-79.71 -76.95 -7.49
-82.08 -75.17 -7.34
-82.38 -74.86 -7.35
-67.44 -57.48 -5.69
-68.46 -56.85 -5.7
-63.81 -71.94 -3.64
-81.88 -75.36 -7.35
-68.63 -77.24 -6.29
-81.77 -75.46 -7.36
-66 -58.65 -5.79
-75.87 -78.32 -7.43
-82.66 -74.55 -7.32
-68.03 -57.1 -5.68
-82.56 -74.66 -7.33
-80.43 -76.5 -7.46
-82.28 -74.96 -7.34
-68.26 -56.97 -5.68
-67.75 -72.59 1.96
-69.24 -76.28 -1.01
-81.07 -76.04 -7.4
-66.29 -58.39 -5.78
-81.65 -75.56 -7.36
-67.84 -76.16 -2.57
-66.77 -58 -5.74
-67.27 -57.61 -5.7
-68.48 -56.85 -5.71
-67.09 -57.74 -5.71
-82.46 -74.76 -7.34
-81.54 -75.65 -7.38
-81.19 -75.94 -7.4
-68.12 -75.47 -0.78
-78.24 -77.63 -7.61
-67.49 -72.55 1.77
-68.06 -57.1 -5.68
-67.66 -57.35 -5.69
-82.36 -74.86 -7.34
-81.42 -75.75 -7.38
-79.99 -76.77 -7.49
-69.18 -73.87 1.94
-82.64 -74.55 -7.33
-66.5 -75.2 -2.85
-80.27 -76.59 -7.46
-68.5 -56.85 -5.7
-74.8 -78.44 -7.37
-81.96 -75.26 -7.34
-82.54 -74.66 -7.32
-66.62 -58.13 -5.74
-67.86 -57.23 -5.68
-78.03 -77.71 -7.53
-75.35 -78.38 -7.41
-68.63 -73.7 1.72
-81.74 -75.46 -7.35
-66.94 -57.87 -5.71
-67.48 -57.48 -5.69
-68.51 -56.85 -5.71
-82.25 -74.96 -7.35
-68.28 -56.98 -5.68
-69.1 -73.64 2.07
-80.92 -76.13 -7.41
-82.44 -74.76 -7.33
-68.93 -73.73 1.88
-68.08 -57.1 -5.68
-82.63 -74.55 -7.31
-70.16 -77.87 -6.55
-82.05 -75.16 -7.34
-67.2 -76.32 -6.08
-82.53 -74.66 -7.31
-71.96 -78.32 -6.89
-67.31 -57.61 -5.71
-67.42 -72.42 1.77
-68.49 -77.13 -6.28
-81.83 -75.36 -7.36
-80.1 -76.68 -7.46
-82.14 -75.06 -7.35
-68.19 -75.67 -1.09
-67.65 -72.57 1.85
-68.3 -56.98 -5.69
-82.33 -74.86 -7.35
-65.64 -59.06 -5.83
-80.64 -76.32 -7.42
-67.53 -57.49 -5.68
-76.74 -78.09 -7.46
-65.29 -59.46 -5.86
-66.49 -58.26 -5.75
-69.51 -77.61 -6.42
-67.8 -76.15 -2.72
-82.23 -74.96 -7.34
-81.27 -75.84 -7.38
-81.93 -75.26 -7.34
-67.14 -57.74 -5.71
-82.61 -74.55 -7.32
-67.9 -57.23 -5.67
-82.32 -74.86 -7.34
-81.71 -75.46 -7.34
-68.53 -56.86 -5.7
-81.49 -75.65 -7.37
-65.06 -59.73 -5.9
-68.32 -56.98 -5.69
-73.76 -78.45 -7.26
-82.12 -75.06 -7.34
-67.7 -57.36 -5.69
-68.1 -57.11 -5.68
-82.02 -75.16 -7.34
-80.49 -76.41 -7.43
-64.41 -72.74 -3.21
-63.97 -72.08 -3.5
-82.22 -74.96 -7.32
-67.89 -75.23 -0.75
-79.78 -76.85 -7.49
-65.18 -59.6 -5.88
-68.55 -56.86 -5.7
-68.73 -73.49 1.92
-82.41 -74.75 -7.35
-69.68 -76.42 -0.98
-67.32 -72.4 1.67
-81.59 -75.55 -7.37
-81.12 -75.94 -7.4
-69.04 -74.59 1.09
-68.7 -73.59 1.81
-81.8 -75.36 -7.35
-80.75 -76.22 -7.41
-82.5 -74.65 -7.32
-78.92 -77.29 -7.55
-82.59 -74.55 -7.31
-82.11 -75.06 -7.32
